7.7000003 0.4000001 0.54237
7.7000003 0.5 0.61699605
7.7000003 0.5999999 0.687255
7.7000003 0.6999998 0.738619
7.7000003 0.8000002 0.76118404
7.7000003 0.9000001 0.752159
7.7000003 1.0 0.716278
7.7000003 1.0999999 0.6641634
7.7000003 1.2 0.60923404
7.7000003 1.3 0.56408006
7.7000003 1.4000001 0.53733003
7.7000003 1.5 0.53173
7.7000003 1.5999999 0.54395
7.7000003 1.7 0.56582004
7.7000003 1.8 0.58673304
7.7000003 1.9000001 0.596391
7.7000003 2.0 0.587228
7.7000003 2.1 0.55596006
7.7000003 2.2 0.504
7.7000003 2.3 0.43681002
7.7000003 2.4 0.36243004
7.7000003 2.5 0.28964004
7.7000003 2.6 0.22624004
7.7000003 2.7 0.17776003
7.7000003 2.8 0.14680004
7.7000003 2.9 0.13298005
7.7000003 3.0 0.13353002
7.7000003 3.1 0.14416003
7.7000003 3.2 0.15997005
7.7000003 3.3 0.17639002
7.7000003 3.4 0.18975002
7.7000003 3.5 0.19766003
7.7000003 3.6 0.19903004
7.7000003 3.7 0.19392002
7.7000003 3.8 0.18326002
7.7000003 3.9 0.16848004
7.7000003 4.0 0.15119004
7.7000003 4.1 0.13295001
7.7000003 4.2 0.115070045
7.7000003 4.3 0.09852004
7.7000003 4.4 0.08395004
7.7000003 4.5 0.07170004
7.7000003 4.6 0.061880052
7.7000003 4.7 0.054450035
7.7000003 4.8 0.049300015
7.7000003 4.9 0.046270013
7.7000003 5.0 0.045270026
7.7000003 5.1 0.046270013
7.7000003 5.2 0.049300015
7.7000003 5.3 0.054450035
7.7000003 5.4 0.061880052
7.7000003 5.5 0.07170004
7.7000003 5.6 0.08395004
7.7000003 5.7 0.09852004
7.7000003 5.8 0.115070045
7.7000003 5.9 0.13295001
7.7000003 6.0 0.15119004
7.7000003 6.1 0.16848004
7.7000003 6.2000003 0.18326002
7.7000003 6.2999997 0.19392002
7.7000003 6.4 0.19903004
7.7000003 6.5 0.19766003
7.7000003 6.6 0.18975002
7.7000003 6.7000003 0.17639002
7.7000003 6.7999997 0.15997005
7.7000003 6.9 0.14416003
7.7000003 7.0 0.13353002
7.7000003 7.1 0.13298005
7.7000003 7.2000003 0.14680004
7.7000003 7.2999997 0.17776003
7.7000003 7.4 0.22624004
7.7000003 7.5 0.28964004
7.7000003 7.6 0.36243004
7.7000003 7.7000003 0.43681002
7.7000003 7.7999997 0.504
7.7000003 7.9 0.55596006
7.7000003 8.0 0.587228
7.7000003 8.099999 0.596391
7.7000003 8.2 0.58673304
7.7000003 8.3 0.56582004
7.7000003 8.400001 0.54395
7.7000003 8.5 0.53173
7.7000003 8.599999 0.53733003
7.7000003 8.7 0.56408006
7.7000003 8.8 0.60923404
7.7000003 8.900001 0.6641634
7.7000003 9.0 0.716278
7.7000003 9.099999 0.752159
7.7000003 9.2 0.76118404
7.7000003 9.3 0.738619
7.7000003 9.400001 0.687255
7.7000003 9.5 0.61699605
7.7000003 9.599999 0.54237
7.7000003 9.7 0.47858003
7.7000003 9.8 0.43717003
7.7000003 9.900001 0.42258003
7.7000003 10.0 0.43076003
7.7999997 0.0999999 0.42493004
7.7999997 0.19999981 0.42564002
7.7999997 0.3000002 0.45130002
7.7999997 0.4000001 0.5023
7.7999997 0.5 0.57121
7.7999997 0.5999999 0.645012
7.7999997 0.6999998 0.708857
7.7999997 0.8000002 0.75010604
7.7999997 0.9000001 0.76159304
7.7999997 1.0 0.74323803
7.7999997 1.0999999 0.70170206
7.7999997 1.2 0.64830804
7.7999997 1.3 0.59591705
7.7999997 1.4000001 0.55564004
7.7999997 1.5 0.53428006
7.7999997 1.5999999 0.53296006
7.7999997 1.7 0.54741
7.7999997 1.8 0.56933004
7.7999997 1.9000001 0.58874905
7.7999997 2.0 0.59641504
7.7999997 2.1 0.585838
7.7999997 2.2 0.55449003
7.7999997 2.3 0.504
7.7999997 2.4 0.43948004
7.7999997 2.5 0.36820003
7.7999997 2.6 0.29799002
7.7999997 2.7 0.23585004
7.7999997 2.8 0.18681002
7.7999997 2.9 0.15343004
7.7999997 3.0 0.13578004
7.7999997 3.1 0.13185
7.7999997 3.2 0.13824004
7.7999997 3.3 0.15097004
7.7999997 3.4 0.16611004
7.7999997 3.5 0.18038002
7.7999997 3.6 0.19140002
7.7999997 3.7 0.19782004
7.7999997 3.8 0.19920003
7.7999997 3.9 0.19587004
7.7999997 4.0 0.18866003
7.7999997 4.1 0.17864004
7.7999997 4.2 0.16698003
7.7999997 4.3 0.15474004
7.7999997 4.4 0.14282
7.7999997 4.5 0.13194
7.7999997 4.6 0.12258005
7.7999997 4.7 0.115070045
7.7999997 4.8 0.10961002
7.7999997 4.9 0.106300056
7.7999997 5.0 0.10519004
7.7999997 5.1 0.106300056
7.7999997 5.2 0.10961002
7.7999997 5.3 0.115070045
7.7999997 5.4 0.12258005
7.7999997 5.5 0.13194
7.7999997 5.6 0.14282
7.7999997 5.7 0.15474004
7.7999997 5.8 0.16698003
7.7999997 5.9 0.17864004
7.7999997 6.0 0.18866003
7.7999997 6.1 0.19587004
7.7999997 6.2000003 0.19920003
7.7999997 6.2999997 0.19782004
7.7999997 6.4 0.19140002
7.7999997 6.5 0.18038002
7.7999997 6.6 0.16611004
7.7999997 6.7000003 0.15097004
7.7999997 6.7999997 0.13824004
7.7999997 6.9 0.13185
7.7999997 7.0 0.13578004
7.7999997 7.1 0.15343004
7.7999997 7.2000003 0.18681002
7.7999997 7.2999997 0.23585004
7.7999997 7.4 0.29799002
7.7999997 7.5 0.36820003
7.7999997 7.6 0.43948004
7.7999997 7.7000003 0.504
7.7999997 7.7999997 0.55449003
7.7999997 7.9 0.585838
7.7999997 8.0 0.59641504
7.7999997 8.099999 0.58874905
7.7999997 8.2 0.56933004
7.7999997 8.3 0.54741
7.7999997 8.400001 0.53296006
7.7999997 8.5 0.53428006
7.7999997 8.599999 0.55564004
7.7999997 8.7 0.59591705
7.7999997 8.8 0.64830804
7.7999997 8.900001 0.70170206
7.7999997 9.0 0.74323803
7.7999997 9.099999 0.76159304
7.7999997 9.2 0.75010604
7.7999997 9.3 0.708857
7.7999997 9.400001 0.645012
7.7999997 9.5 0.57121
7.7999997 9.599999 0.5023
7.7999997 9.7 0.45130002
7.7999997 9.8 0.42564002
7.7999997 9.900001 0.42493004
7.7999997 10.0 0.44094002
7.9 0.0999999 0.43295005
7.9 0.19999981 0.42257005
7.9 0.3000002 0.43264005
7.9 0.4000001 0.46816003
7.9 0.5 0.52639
7.9 0.5999999 0.59776604
7.9 0.6999998 0.6687029
7.9 0.8000002 0.72530705
7.9 0.9000001 0.75701004
7.9 1.0 0.75911605
7.9 1.0999999 0.73367304
7.9 1.2 0.688584
7.9 1.3 0.635303
7.9 1.4000001 0.585841
7.9 1.5 0.54988
7.9 1.5999999 0.53268003
7.9 1.7 0.53427005
7.9 1.8 0.54986006
7.9 1.9000001 0.571416
7.9 2.0 0.58968705
7.9 2.1 0.596382
7.9 2.2 0.585838
7.9 2.3 0.55596006
7.9 2.4 0.50830007
7.9 2.5 0.44741005
7.9 2.6 0.37969002
7.9 2.7 0.31210002
7.9 2.8 0.25087002
7.9 2.9 0.20068002
7.9 3.0 0.16414005
7.9 3.1 0.14178002
7.9 3.2 0.13236004
7.9 3.3 0.13338006
7.9 3.4 0.14168
7.9 3.5 0.15402001
7.9 3.6 0.16753003
7.9 3.7 0.17994002
7.9 3.8 0.18975002
7.9 3.9 0.19619003
7.9 4.0 0.19909003
7.9 4.1 0.19878003
7.9 4.2 0.19587004
7.9 4.3 0.19114003
7.9 4.4 0.18535003
7.9 4.5 0.17925003
7.9 4.6 0.17346004
7.9 4.7 0.16848004
7.9 4.8 0.16467005
7.9 4.9 0.16229004
7.9 5.0 0.16148001
7.9 5.1 0.16229004
7.9 5.2 0.16467005
7.9 5.3 0.16848004
7.9 5.4 0.17346004
7.9 5.5 0.17925003
7.9 5.6 0.18535003
7.9 5.7 0.19114003
7.9 5.8 0.19587004
7.9 5.9 0.19878003
7.9 6.0 0.19909003
7.9 6.1 0.19619003
7.9 6.2000003 0.18975002
7.9 6.2999997 0.17994002
7.9 6.4 0.16753003
7.9 6.5 0.15402001
7.9 6.6 0.14168
7.9 6.7000003 0.13338006
7.9 6.7999997 0.13236004
7.9 6.9 0.14178002
7.9 7.0 0.16414005
7.9 7.1 0.20068002
7.9 7.2000003 0.25087002
7.9 7.2999997 0.31210002
7.9 7.4 0.37969002
7.9 7.5 0.44741005
7.9 7.6 0.50830007
7.9 7.7000003 0.55596006
7.9 7.7999997 0.585838
7.9 7.9 0.596382
7.9 8.0 0.58968705
7.9 8.099999 0.571416
7.9 8.2 0.54986006
7.9 8.3 0.53427005
7.9 8.400001 0.53268003
7.9 8.5 0.54988
7.9 8.599999 0.585841
7.9 8.7 0.635303
7.9 8.8 0.688584
7.9 8.900001 0.73367304
7.9 9.0 0.75911605
7.9 9.099999 0.75701004
7.9 9.2 0.72530705
7.9 9.3 0.6687029
7.9 9.400001 0.59776604
7.9 9.5 0.52639
7.9 9.599999 0.46816003
7.9 9.7 0.43264005
7.9 9.8 0.42257005
7.9 9.900001 0.43295005
7.9 10.0 0.45232
8.0 0.0999999 0.44438002
8.0 0.19999981 0.42710003
8.0 0.3000002 0.42353004
8.0 0.4000001 0.44257003
8.0 0.5 0.48628002
8.0 0.5999999 0.54943
8.0 0.6999998 0.621162
8.0 0.8000002 0.68797004
8.0 0.9000001 0.73727304
8.0 1.0 0.76052403
8.0 1.0999999 0.7551
8.0 1.2 0.72460306
8.0 1.3 0.67760104
8.0 1.4000001 0.625285
8.0 1.5 0.578688
8.0 1.5999999 0.54621005
8.0 1.7 0.53194004
8.0 1.8 0.53521
8.0 1.9000001 0.55113006
8.0 2.0 0.572106
8.0 2.1 0.58968705
8.0 2.2 0.59641504
8.0 2.3 0.587228
8.0 2.4 0.56021005
8.0 2.5 0.51661
8.0 2.6 0.46030003
8.0 2.7 0.39679003
8.0 2.8 0.33213
8.0 2.9 0.27189
8.0 3.0 0.22041002
8.0 3.1 0.18040004
8.0 3.2 0.15283
8.0 3.3 0.13717002
8.0 3.4 0.13175005
8.0 3.5 0.13422
8.0 3.6 0.14202005
8.0 3.7 0.1527
8.0 3.8 0.16421002
8.0 3.9 0.17502004
8.0 4.0 0.18414003
8.0 4.1 0.19108003
8.0 4.2 0.19575003
8.0 4.3 0.19836003
8.0 4.4 0.19929004
8.0 4.5 0.19903004
8.0 4.6 0.19805002
8.0 4.7 0.19679004
8.0 4.8 0.19562003
8.0 4.9 0.19481003
8.0 5.0 0.19452003
8.0 5.1 0.19481003
8.0 5.2 0.19562003
8.0 5.3 0.19679004
8.0 5.4 0.19805002
8.0 5.5 0.19903004
8.0 5.6 0.19929004
8.0 5.7 0.19836003
8.0 5.8 0.19575003
8.0 5.9 0.19108003
8.0 6.0 0.18414003
8.0 6.1 0.17502004
8.0 6.2000003 0.16421002
8.0 6.2999997 0.1527
8.0 6.4 0.14202005
8.0 6.5 0.13422
8.0 6.6 0.13175005
8.0 6.7000003 0.13717002
8.0 6.7999997 0.15283
8.0 6.9 0.18040004
8.0 7.0 0.22041002
8.0 7.1 0.27189
8.0 7.2000003 0.33213
8.0 7.2999997 0.39679003
8.0 7.4 0.46030003
8.0 7.5 0.51661
8.0 7.6 0.56021005
8.0 7.7000003 0.587228
8.0 7.7999997 0.59641504
8.0 7.9 0.58968705
8.0 8.0 0.572106
8.0 8.099999 0.55113006
8.0 8.2 0.53521
8.0 8.3 0.53194004
8.0 8.400001 0.54621005
8.0 8.5 0.578688
8.0 8.599999 0.625285
8.0 8.7 0.67760104
8.0 8.8 0.72460306
8.0 8.900001 0.7551
8.0 9.0 0.76052403
8.0 9.099999 0.73727304
8.0 9.2 0.68797004
8.0 9.3 0.621162
8.0 9.400001 0.54943
8.0 9.5 0.48628002
8.0 9.599999 0.44257003
8.0 9.7 0.42353004
8.0 9.8 0.42710003
8.0 9.900001 0.44438002
8.0 10.0 0.462
8.099999 0.0999999 0.45616004
8.099999 0.19999981 0.4372
8.099999 0.3000002 0.42367002
8.099999 0.4000001 0.42723003
8.099999 0.5 0.45428005
8.099999 0.5999999 0.50433004
8.099999 0.6999998 0.57039005
8.099999 0.8000002 0.64095
8.099999 0.9000001 0.703059
8.099999 1.0 0.745576
8.099999 1.0999999 0.761771
8.099999 1.2 0.750655
8.099999 1.3 0.716853
8.099999 1.4000001 0.66915345
8.099999 1.5 0.61822903
8.099999 1.5999999 0.574135
8.099999 1.7 0.54419005
8.099999 1.8 0.53167003
8.099999 1.9000001 0.53555006
8.099999 2.0 0.55113006
8.099999 2.1 0.571416
8.099999 2.2 0.58874905
8.099999 2.3 0.596391
8.099999 2.4 0.589698
8.099999 2.5 0.566747
8.099999 2.6 0.52836
8.099999 2.7 0.47763005
8.099999 2.8 0.41915002
8.099999 2.9 0.35810003
8.099999 3.0 0.29939002
8.099999 3.1 0.24705002
8.099999 3.2 0.20383003
8.099999 3.3 0.17107004
8.099999 3.4 0.14888
8.099999 3.5 0.13631004
8.099999 3.6 0.13179004
8.099999 3.7 0.13338006
8.099999 3.8 0.13912004
8.099999 3.9 0.14724004
8.099999 4.0 0.15628004
8.099999 4.1 0.16516
8.099999 4.2 0.17318004
8.099999 4.3 0.17994002
8.099999 4.4 0.18534002
8.099999 4.5 0.18941003
8.099999 4.6 0.19233003
8.099999 4.7 0.19429004
8.099999 4.8 0.19552004
8.099999 4.9 0.19619003
8.099999 5.0 0.19639003
8.099999 5.1 0.19619003
8.099999 5.2 0.19552004
8.099999 5.3 0.19429004
8.099999 5.4 0.19233003
8.099999 5.5 0.18941003
8.099999 5.6 0.18534002
8.099999 5.7 0.17994002
8.099999 5.8 0.17318004
8.099999 5.9 0.16516
8.099999 6.0 0.15628004
8.099999 6.1 0.14724004
8.099999 6.2000003 0.13912004
8.099999 6.2999997 0.13338006
8.099999 6.4 0.13179004
8.099999 6.5 0.13631004
8.099999 6.6 0.14888
8.099999 6.7000003 0.17107004
8.099999 6.7999997 0.20383003
8.099999 6.9 0.24705002
8.099999 7.0 0.29939002
8.099999 7.1 0.35810003
8.099999 7.2000003 0.41915002
8.099999 7.2999997 0.47763005
8.099999 7.4 0.52836
8.099999 7.5 0.566747
8.099999 7.6 0.589698
8.099999 7.7000003 0.596391
8.099999 7.7999997 0.58874905
8.099999 7.9 0.571416
8.099999 8.0 0.55113006
8.099999 8.099999 0.53555006
8.099999 8.2 0.53167003
8.099999 8.3 0.54419005
8.099999 8.400001 0.574135
8.099999 8.5 0.61822903
8.099999 8.599999 0.66915345
8.099999 8.7 0.716853
8.099999 8.8 0.750655
8.099999 8.900001 0.761771
8.099999 9.0 0.745576
8.099999 9.099999 0.703059
8.099999 9.2 0.64095
8.099999 9.3 0.57039005
8.099999 9.400001 0.50433004
8.099999 9.5 0.45428005
8.099999 9.599999 0.42723003
8.099999 9.7 0.42367002
8.099999 9.8 0.4372
8.099999 9.900001 0.45616004
8.099999 10.0 0.46681002
8.2 0.0999999 0.46476004
8.2 0.19999981 0.4498
8.2 0.3000002 0.43141
8.2 0.4000001 0.42252
8.2 0.5 0.43288
8.2 0.5999999 0.46661
8.2 0.6999998 0.52124006
8.2 0.8000002 0.588584
8.2 0.9000001 0.657019
8.2 1.0 0.714416
8.2 1.0999999 0.751051
8.2 1.2 0.76172
8.2 1.3 0.74663
8.2 1.4000001 0.71098
8.2 1.5 0.6634475
8.2 1.5999999 0.61405003
8.2 1.7 0.571927
8.2 1.8 0.54355
8.2 1.9000001 0.53167003
8.2 2.0 0.53521
8.2 2.1 0.54986006
8.2 2.2 0.56933004
8.2 2.3 0.58673304
8.2 2.4 0.595956
8.2 2.5 0.592651
8.2 2.6 0.57477105
8.2 2.7 0.54262
8.2 2.8 0.49851003
8.2 2.9 0.44609
8.2 3.0 0.38969004
8.2 3.1 0.33357003
8.2 3.2 0.28138003
8.2 3.3 0.23585004
8.2 3.4 0.19862002
8.2 3.5 0.17027003
8.2 3.6 0.15052003
8.2 3.7 0.13844001
8.2 3.8 0.13271004
8.2 3.9 0.13185
8.2 4.0 0.13441002
8.2 4.1 0.13912004
8.2 4.2 0.14490002
8.2 4.3 0.15097004
8.2 4.4 0.15673006
8.2 4.5 0.16185004
8.2 4.6 0.16611004
8.2 4.7 0.16943002
8.2 4.8 0.17178002
8.2 4.9 0.17318004
8.2 5.0 0.17364004
8.2 5.1 0.17318004
8.2 5.2 0.17178002
8.2 5.3 0.16943002
8.2 5.4 0.16611004
8.2 5.5 0.16185004
8.2 5.6 0.15673006
8.2 5.7 0.15097004
8.2 5.8 0.14490002
8.2 5.9 0.13912004
8.2 6.0 0.13441002
8.2 6.1 0.13185
8.2 6.2000003 0.13271004
8.2 6.2999997 0.13844001
8.2 6.4 0.15052003
8.2 6.5 0.17027003
8.2 6.6 0.19862002
8.2 6.7000003 0.23585004
8.2 6.7999997 0.28138003
8.2 6.9 0.33357003
8.2 7.0 0.38969004
8.2 7.1 0.44609
8.2 7.2000003 0.49851003
8.2 7.2999997 0.54262
8.2 7.4 0.57477105
8.2 7.5 0.592651
8.2 7.6 0.595956
8.2 7.7000003 0.58673304
8.2 7.7999997 0.56933004
8.2 7.9 0.54986006
8.2 8.0 0.53521
8.2 8.099999 0.53167003
8.2 8.2 0.54355
8.2 8.3 0.571927
8.2 8.400001 0.61405003
8.2 8.5 0.6634475
8.2 8.599999 0.71098
8.2 8.7 0.74663
8.2 8.8 0.76172
8.2 8.900001 0.751051
8.2 9.0 0.714416
8.2 9.099999 0.657019
8.2 9.2 0.588584
8.2 9.3 0.52124006
8.2 9.400001 0.46661
8.2 9.5 0.43288
8.2 9.599999 0.42252
8.2 9.7 0.43141
8.2 9.8 0.4498
8.2 9.900001 0.46476004
8.2 10.0 0.46376005
8.3 0.0999999 0.46654004
8.3 0.19999981 0.46106002
8.3 0.3000002 0.44377005
8.3 0.4000001 0.42723003
8.3 0.5 0.42320004
8.3 0.5999999 0.43960002
8.3 0.6999998 0.47858003
8.3 0.8000002 0.53620005
8.3 0.9000001 0.603622
8.3 1.0 0.6694685
8.3 1.0999999 0.722557
8.3 1.2 0.75444704
8.3 1.3 0.76113904
8.3 1.4000001 0.743631
8.3 1.5 0.707333
8.3 1.5999999 0.66057795
8.3 1.7 0.612667
8.3 1.8 0.571927
8.3 1.9000001 0.54419005
8.3 2.0 0.53194004
8.3 2.1 0.53427005
8.3 2.2 0.54741
8.3 2.3 0.56582004
8.3 2.4 0.58339405
8.3 2.5 0.594573
8.3 2.6 0.595233
8.3 2.7 0.58315605
8.3 2.8 0.55811
8.3 2.9 0.52161
8.3 3.0 0.47642002
8.3 3.1 0.42601
8.3 3.2 0.37395003
8.3 3.3 0.32351002
8.3 3.4 0.27729002
8.3 3.5 0.23707002
8.3 3.6 0.20383003
8.3 3.7 0.17776003
8.3 3.8 0.15852004
8.3 3.9 0.14533001
8.3 4.0 0.13717002
8.3 4.1 0.13298005
8.3 4.2 0.13169003
8.3 4.3 0.13237005
8.3 4.4 0.13422
8.3 4.5 0.13663006
8.3 4.6 0.13912004
8.3 4.7 0.14134002
8.3 4.8 0.14307004
8.3 4.9 0.14416003
8.3 5.0 0.14453006
8.3 5.1 0.14416003
8.3 5.2 0.14307004
8.3 5.3 0.14134002
8.3 5.4 0.13912004
8.3 5.5 0.13663006
8.3 5.6 0.13422
8.3 5.7 0.13237005
8.3 5.8 0.13169003
8.3 5.9 0.13298005
8.3 6.0 0.13717002
8.3 6.1 0.14533001
8.3 6.2000003 0.15852004
8.3 6.2999997 0.17776003
8.3 6.4 0.20383003
8.3 6.5 0.23707002
8.3 6.6 0.27729002
8.3 6.7000003 0.32351002
8.3 6.7999997 0.37395003
8.3 6.9 0.42601
8.3 7.0 0.47642002
8.3 7.1 0.52161
8.3 7.2000003 0.55811
8.3 7.2999997 0.58315605
8.3 7.4 0.595233
8.3 7.5 0.594573
8.3 7.6 0.58339405
8.3 7.7000003 0.56582004
8.3 7.7999997 0.54741
8.3 7.9 0.53427005
8.3 8.0 0.53194004
8.3 8.099999 0.54419005
8.3 8.2 0.571927
8.3 8.3 0.612667
8.3 8.400001 0.66057795
8.3 8.5 0.707333
8.3 8.599999 0.743631
8.3 8.7 0.76113904
8.3 8.8 0.75444704
8.3 8.900001 0.722557
8.3 9.0 0.6694685
8.3 9.099999 0.603622
8.3 9.2 0.53620005
8.3 9.3 0.47858003
8.3 9.400001 0.43960002
8.3 9.5 0.42320004
8.3 9.599999 0.42723003
8.3 9.7 0.44377005
8.3 9.8 0.46106002
8.3 9.900001 0.46654004
8.3 10.0 0.45039004
8.400001 0.0999999 0.45833004
8.400001 0.19999981 0.46679002
8.400001 0.3000002 0.45668003
8.400001 0.4000001 0.43856004
8.400001 0.5 0.42456
8.400001 0.5999999 0.42514002
8.400001 0.6999998 0.44655004
8.400001 0.8000002 0.48936003
8.400001 0.9000001 0.54864
8.400001 1.0 0.615327
8.400001 1.0999999 0.67851
8.400001 1.2 0.727971
8.400001 1.3 0.75636405
8.400001 1.4000001 0.760573
8.400001 1.5 0.742039
8.400001 1.5999999 0.706098
8.400001 1.7 0.66057795
8.400001 1.8 0.61405003
8.400001 1.9000001 0.574135
8.400001 2.0 0.54621005
8.400001 2.1 0.53268003
8.400001 2.2 0.53296006
8.400001 2.3 0.54395
8.400001 2.4 0.56091005
8.400001 2.5 0.578462
8.400001 2.6 0.59160805
8.400001 2.7 0.59642404
8.400001 2.8 0.59052
8.400001 2.9 0.57316303
8.400001 3.0 0.54512
8.400001 3.1 0.50830007
8.400001 3.2 0.46534002
8.400001 3.3 0.41915002
8.400001 3.4 0.37251002
8.400001 3.5 0.32782003
8.400001 3.6 0.28687003
8.400001 3.7 0.25087002
8.400001 3.8 0.22041002
8.400001 3.9 0.19557002
8.400001 4.0 0.17605004
8.400001 4.1 0.16127002
8.400001 4.2 0.15052003
8.400001 4.3 0.14305001
8.400001 4.4 0.13811004
8.400001 4.5 0.13504004
8.400001 4.6 0.13328004
8.400001 4.7 0.13236004
8.400001 4.8 0.13194
8.400001 4.9 0.13179004
8.400001 5.0 0.13175005
8.400001 5.1 0.13179004
8.400001 5.2 0.13194
8.400001 5.3 0.13236004
8.400001 5.4 0.13328004
8.400001 5.5 0.13504004
8.400001 5.6 0.13811004
8.400001 5.7 0.14305001
8.400001 5.8 0.15052003
8.400001 5.9 0.16127002
8.400001 6.0 0.17605004
8.400001 6.1 0.19557002
8.400001 6.2000003 0.22041002
8.400001 6.2999997 0.25087002
8.400001 6.4 0.28687003
8.400001 6.5 0.32782003
8.400001 6.6 0.37251002
8.400001 6.7000003 0.41915002
8.400001 6.7999997 0.46534002
8.400001 6.9 0.50830007
8.400001 7.0 0.54512
8.400001 7.1 0.57316303
8.400001 7.2000003 0.59052
8.400001 7.2999997 0.59642404
8.400001 7.4 0.59160805
8.400001 7.5 0.578462
8.400001 7.6 0.56091005
8.400001 7.7000003 0.54395
8.400001 7.7999997 0.53296006
8.400001 7.9 0.53268003
8.400001 8.0 0.54621005
8.400001 8.099999 0.574135
8.400001 8.2 0.61405003
8.400001 8.3 0.66057795
8.400001 8.400001 0.706098
8.400001 8.5 0.742039
8.400001 8.599999 0.760573
8.400001 8.7 0.75636405
8.400001 8.8 0.727971
8.400001 8.900001 0.67851
8.400001 9.0 0.615327
8.400001 9.099999 0.54864
8.400001 9.2 0.48936003
8.400001 9.3 0.44655004
8.400001 9.400001 0.42514002
8.400001 9.5 0.42456
8.400001 9.599999 0.43856004
8.400001 9.7 0.45668003
8.400001 9.8 0.46679002
8.400001 9.900001 0.45833004
8.400001 10.0 0.42532003
8.5 0.0999999 0.43793002
8.5 0.19999981 0.46311003
8.5 0.3000002 0.46550003
8.5 0.4000001 0.45232
8.5 0.5 0.43438002
8.5 0.5999999 0.42312002
8.5 0.6999998 0.42773002
8.5 0.8000002 0.45298004
8.5 0.9000001 0.49832
8.5 1.0 0.55821
8.5 1.0999999 0.62365603
8.5 1.2 0.68437505
8.5 1.3 0.731051
8.5 1.4000001 0.75721705
8.5 1.5 0.760348
8.5 1.5999999 0.742039
8.5 1.7 0.707333
8.5 1.8 0.6634475
8.5 1.9000001 0.61822903
8.5 2.0 0.578688
8.5 2.1 0.54988
8.5 2.2 0.53428006
8.5 2.3 0.53173
8.5 2.4 0.53986
8.5 2.5 0.55474
8.5 2.6 0.571761
8.5 2.7 0.58646804
8.5 2.8 0.595165
8.5 2.9 0.595345
8.5 3.0 0.585838
8.5 3.1 0.566747
8.5 3.2 0.53921
8.5 3.3 0.50508004
8.5 3.4 0.46659002
8.5 3.5 0.42601
8.5 3.6 0.38542002
8.5 3.7 0.34655002
8.5 3.8 0.31068003
8.5 3.9 0.27865002
8.5 4.0 0.25087002
8.5 4.1 0.22742003
8.5 4.2 0.20811003
8.5 4.3 0.19259003
8.5 4.4 0.18040004
8.5 4.5 0.17107004
8.5 4.6 0.16414005
8.5 4.7 0.15920001
8.5 4.8 0.15591002
8.5 4.9 0.15404004
8.5 5.0 0.15343004
8.5 5.1 0.15404004
8.5 5.2 0.15591002
8.5 5.3 0.15920001
8.5 5.4 0.16414005
8.5 5.5 0.17107004
8.5 5.6 0.18040004
8.5 5.7 0.19259003
8.5 5.8 0.20811003
8.5 5.9 0.22742003
8.5 6.0 0.25087002
8.5 6.1 0.27865002
8.5 6.2000003 0.31068003
8.5 6.2999997 0.34655002
8.5 6.4 0.38542002
8.5 6.5 0.42601
8.5 6.6 0.46659002
8.5 6.7000003 0.50508004
8.5 6.7999997 0.53921
8.5 6.9 0.566747
8.5 7.0 0.585838
8.5 7.1 0.595345
8.5 7.2000003 0.595165
8.5 7.2999997 0.58646804
8.5 7.4 0.571761
8.5 7.5 0.55474
8.5 7.6 0.53986
8.5 7.7000003 0.53173
8.5 7.7999997 0.53428006
8.5 7.9 0.54988
8.5 8.0 0.578688
8.5 8.099999 0.61822903
8.5 8.2 0.6634475
8.5 8.3 0.707333
8.5 8.400001 0.742039
8.5 8.5 0.760348
8.5 8.599999 0.75721705
8.5 8.7 0.731051
8.5 8.8 0.68437505
8.5 8.900001 0.62365603
8.5 9.0 0.55821
8.5 9.099999 0.49832
8.5 9.2 0.45298004
8.5 9.3 0.42773002
8.5 9.400001 0.42312002
8.5 9.5 0.43438002
8.5 9.599999 0.45232
8.5 9.7 0.46550003
8.5 9.8 0.46311003
8.5 9.900001 0.43793002
8.5 10.0 0.38853002
8.599999 0.0999999 0.40467003
8.599999 0.19999981 0.44705003
8.599999 0.3000002 0.46565002
8.599999 0.4000001 0.46344003
8.599999 0.5 0.44841003
8.599999 0.5999999 0.43125004
8.599999 0.6999998 0.42257005
8.599999 0.8000002 0.43039003
8.599999 0.9000001 0.45832002
8.599999 1.0 0.50501
8.599999 1.0999999 0.56468004
8.599999 1.2 0.628629
8.599999 1.3 0.687255
8.599999 1.4000001 0.73204905
8.599999 1.5 0.75721705
8.599999 1.5999999 0.760573
8.599999 1.7 0.743631
8.599999 1.8 0.71098
8.599999 1.9000001 0.66915345
8.599999 2.0 0.625285
8.599999 2.1 0.585841
8.599999 2.2 0.55564004
8.599999 2.3 0.53733003
8.599999 2.4 0.53124005
8.599999 2.5 0.53572005
8.599999 2.6 0.54771
8.599999 2.7 0.56336004
8.599999 2.8 0.57878405
8.599999 2.9 0.590574
8.599999 3.0 0.596188
8.599999 3.1 0.59413105
8.599999 3.2 0.58395505
8.599999 3.3 0.56612
8.599999 3.4 0.54178005
8.599999 3.5 0.51250005
8.599999 3.6 0.48003003
8.599999 3.7 0.44609
8.599999 3.8 0.41223
8.599999 3.9 0.37969002
8.599999 4.0 0.34943002
8.599999 4.1 0.32208002
8.599999 4.2 0.29799002
8.599999 4.3 0.27729002
8.599999 4.4 0.25994003
8.599999 4.5 0.24579003
8.599999 4.6 0.23463002
8.599999 4.7 0.22624004
8.599999 4.8 0.22041002
8.599999 4.9 0.21698004
8.599999 5.0 0.21585003
8.599999 5.1 0.21698004
8.599999 5.2 0.22041002
8.599999 5.3 0.22624004
8.599999 5.4 0.23463002
8.599999 5.5 0.24579003
8.599999 5.6 0.25994003
8.599999 5.7 0.27729002
8.599999 5.8 0.29799002
8.599999 5.9 0.32208002
8.599999 6.0 0.34943002
8.599999 6.1 0.37969002
8.599999 6.2000003 0.41223
8.599999 6.2999997 0.44609
8.599999 6.4 0.48003003
8.599999 6.5 0.51250005
8.599999 6.6 0.54178005
8.599999 6.7000003 0.56612
8.599999 6.7999997 0.58395505
8.599999 6.9 0.59413105
8.599999 7.0 0.596188
8.599999 7.1 0.590574
8.599999 7.2000003 0.57878405
8.599999 7.2999997 0.56336004
8.599999 7.4 0.54771
8.599999 7.5 0.53572005
8.599999 7.6 0.53124005
8.599999 7.7000003 0.53733003
8.599999 7.7999997 0.55564004
8.599999 7.9 0.585841
8.599999 8.0 0.625285
8.599999 8.099999 0.66915345
8.599999 8.2 0.71098
8.599999 8.3 0.743631
8.599999 8.400001 0.760573
8.599999 8.5 0.75721705
8.599999 8.599999 0.73204905
8.599999 8.7 0.687255
8.599999 8.8 0.628629
8.599999 8.900001 0.56468004
8.599999 9.0 0.50501
8.599999 9.099999 0.45832002
8.599999 9.2 0.43039003
8.599999 9.3 0.42257005
8.599999 9.400001 0.43125004
8.599999 9.5 0.44841003
8.599999 9.599999 0.46344003
8.599999 9.7 0.46565002
8.599999 9.8 0.44705003
8.599999 9.900001 0.40467003
8.599999 10.0 0.34167004
8.7 0.0999999 0.35967004
8.7 0.19999981 0.41721004
8.7 0.3000002 0.45342
8.7 0.4000001 0.46672004
8.7 0.5 0.46119004
8.7 0.5999999 0.44519004
8.7 0.6999998 0.42905003
8.7 0.8000002 0.42254
8.7 0.9000001 0.43264005
8.7 1.0 0.46212003
8.7 1.0999999 0.50913
8.7 1.2 0.567936
8.7 1.3 0.63028204
8.7 1.4000001 0.687255
8.7 1.5 0.731051
8.7 1.5999999 0.75636405
8.7 1.7 0.76113904
8.7 1.8 0.74663
8.7 1.9000001 0.716853
8.7 2.0 0.67760104
8.7 2.1 0.635303
8.7 2.2 0.59591705
8.7 2.3 0.56408006
8.7 2.4 0.54262
8.7 2.5 0.53237003
8.7 2.6 0.53244
8.7 2.7 0.54058003
8.7 2.8 0.55374
8.7 2.9 0.56863105
8.7 3.0 0.582207
8.7 3.1 0.591997
8.7 3.2 0.59631103
8.7 3.3 0.594289
8.7 3.4 0.585838
8.7 3.5 0.57149404
8.7 3.6 0.55224
8.7 3.7 0.52930003
8.7 3.8 0.504
8.7 3.9 0.47763005
8.7 4.0 0.45132002
8.7 4.1 0.42601
8.7 4.2 0.40243003
8.7 4.3 0.38113004
8.7 4.4 0.36243004
8.7 4.5 0.34655002
8.7 4.6 0.33357003
8.7 4.7 0.32351002
8.7 4.8 0.31637004
8.7 4.9 0.31210002
8.7 5.0 0.31068003
8.7 5.1 0.31210002
8.7 5.2 0.31637004
8.7 5.3 0.32351002
8.7 5.4 0.33357003
8.7 5.5 0.34655002
8.7 5.6 0.36243004
8.7 5.7 0.38113004
8.7 5.8 0.40243003
8.7 5.9 0.42601
8.7 6.0 0.45132002
8.7 6.1 0.47763005
8.7 6.2000003 0.504
8.7 6.2999997 0.52930003
8.7 6.4 0.55224
8.7 6.5 0.57149404
8.7 6.6 0.585838
8.7 6.7000003 0.594289
8.7 6.7999997 0.59631103
8.7 6.9 0.591997
8.7 7.0 0.582207
8.7 7.1 0.56863105
8.7 7.2000003 0.55374
8.7 7.2999997 0.54058003
8.7 7.4 0.53244
8.7 7.5 0.53237003
8.7 7.6 0.54262
8.7 7.7000003 0.56408006
8.7 7.7999997 0.59591705
8.7 7.9 0.635303
8.7 8.0 0.67760104
8.7 8.099999 0.716853
8.7 8.2 0.74663
8.7 8.3 0.76113904
8.7 8.400001 0.75636405
8.7 8.5 0.731051
8.7 8.599999 0.687255
8.7 8.7 0.63028204
8.7 8.8 0.567936
8.7 8.900001 0.50913
8.7 9.0 0.46212003
8.7 9.099999 0.43264005
8.7 9.2 0.42254
8.7 9.3 0.42905003
8.7 9.400001 0.44519004
8.7 9.5 0.46119004
8.7 9.599999 0.46672004
8.7 9.7 0.45342
8.7 9.8 0.41721004
8.7 9.900001 0.35967004
8.7 10.0 0.28805003
8.8 0.0999999 0.30600002
8.8 0.19999981 0.37419003
8.8 0.3000002 0.42667004
8.8 0.4000001 0.45769003
8.8 0.5 0.46692005
8.8 0.5999999 0.45914003
8.8 0.6999998 0.44276005
8.8 0.8000002 0.42763004
8.8 0.9000001 0.42271003
8.8 1.0 0.43414003
8.8 1.0999999 0.46408004
8.8 1.2 0.51052004
8.8 1.3 0.567936
8.8 1.4000001 0.628629
8.8 1.5 0.68437505
8.8 1.5999999 0.727971
8.8 1.7 0.75444704
8.8 1.8 0.76172
8.8 1.9000001 0.750655
8.8 2.0 0.72460306
8.8 2.1 0.688584
8.8 2.2 0.64830804
8.8 2.3 0.60923404
8.8 2.4 0.57582104
8.8 2.5 0.55105
8.8 2.6 0.53626
8.8 2.7 0.53125006
8.8 2.8 0.53457004
8.8 2.9 0.54395
8.8 3.0 0.55676
8.8 3.1 0.570375
8.8 3.2 0.582507
8.8 3.3 0.591408
8.8 3.4 0.595956
8.8 3.5 0.59564704
8.8 3.6 0.59052
8.8 3.7 0.581043
8.8 3.8 0.56797403
8.8 3.9 0.55224
8.8 4.0 0.53480005
8.8 4.1 0.51661
8.8 4.2 0.49851003
8.8 4.3 0.48122
8.8 4.4 0.46534002
8.8 4.5 0.45132002
8.8 4.6 0.43948004
8.8 4.7 0.43008003
8.8 4.8 0.42327002
8.8 4.9 0.41915002
8.8 5.0 0.41777003
8.8 5.1 0.41915002
8.8 5.2 0.42327002
8.8 5.3 0.43008003
8.8 5.4 0.43948004
8.8 5.5 0.45132002
8.8 5.6 0.46534002
8.8 5.7 0.48122
8.8 5.8 0.49851003
8.8 5.9 0.51661
8.8 6.0 0.53480005
8.8 6.1 0.55224
8.8 6.2000003 0.56797403
8.8 6.2999997 0.581043
8.8 6.4 0.59052
8.8 6.5 0.59564704
8.8 6.6 0.595956
8.8 6.7000003 0.591408
8.8 6.7999997 0.582507
8.8 6.9 0.570375
8.8 7.0 0.55676
8.8 7.1 0.54395
8.8 7.2000003 0.53457004
8.8 7.2999997 0.53125006
8.8 7.4 0.53626
8.8 7.5 0.55105
8.8 7.6 0.57582104
8.8 7.7000003 0.60923404
8.8 7.7999997 0.64830804
8.8 7.9 0.688584
8.8 8.0 0.72460306
8.8 8.099999 0.750655
8.8 8.2 0.76172
8.8 8.3 0.75444704
8.8 8.400001 0.727971
8.8 8.5 0.68437505
8.8 8.599999 0.628629
8.8 8.7 0.567936
8.8 8.8 0.51052004
8.8 8.900001 0.46408004
8.8 9.0 0.43414003
8.8 9.099999 0.42271003
8.8 9.2 0.42763004
8.8 9.3 0.44276005
8.8 9.400001 0.45914003
8.8 9.5 0.46692005
8.8 9.599999 0.45769003
8.8 9.7 0.42667004
8.8 9.8 0.37419003
8.8 9.900001 0.30600002
8.8 10.0 0.23233002
8.900001 0.0999999 0.24842003
8.900001 0.19999981 0.32077003
8.900001 0.3000002 0.38549003
8.900001 0.4000001 0.43356004
8.900001 0.5 0.46044004
8.900001 0.5999999 0.46671003
8.900001 0.6999998 0.45753002
8.900001 0.8000002 0.44114003
8.900001 0.9000001 0.42684004
8.900001 1.0 0.42285
8.900001 1.0999999 0.43466005
8.900001 1.2 0.46408004
8.900001 1.3 0.50913
8.900001 1.4000001 0.56468004
8.900001 1.5 0.62365603
8.900001 1.5999999 0.67851
8.900001 1.7 0.722557
8.900001 1.8 0.751051
8.900001 1.9000001 0.761771
8.900001 2.0 0.7551
8.900001 2.1 0.73367304
8.900001 2.2 0.70170206
8.900001 2.3 0.6641634
8.900001 2.4 0.62599605
8.900001 2.5 0.59143806
8.900001 2.6 0.56358004
8.900001 2.7 0.54419005
8.900001 2.8 0.53368
8.900001 2.9 0.53136003
8.900001 3.0 0.53572005
8.900001 3.1 0.54479
8.900001 3.2 0.55642
8.900001 3.3 0.56863105
8.900001 3.4 0.57973903
8.900001 3.5 0.58850706
8.900001 3.6 0.59416705
8.900001 3.7 0.596391
8.900001 3.8 0.595233
8.900001 3.9 0.59103703
8.900001 4.0 0.58434504
8.900001 4.1 0.57581
8.900001 4.2 0.56612
8.900001 4.3 0.55596006
8.900001 4.4 0.54593
8.900001 4.5 0.53658
8.900001 4.6 0.52836
8.900001 4.7 0.52161
8.900001 4.8 0.51661
8.900001 4.9 0.51353
8.900001 5.0 0.51250005
8.900001 5.1 0.51353
8.900001 5.2 0.51661
8.900001 5.3 0.52161
8.900001 5.4 0.52836
8.900001 5.5 0.53658
8.900001 5.6 0.54593
8.900001 5.7 0.55596006
8.900001 5.8 0.56612
8.900001 5.9 0.57581
8.900001 6.0 0.58434504
8.900001 6.1 0.59103703
8.900001 6.2000003 0.595233
8.900001 6.2999997 0.596391
8.900001 6.4 0.59416705
8.900001 6.5 0.58850706
8.900001 6.6 0.57973903
8.900001 6.7000003 0.56863105
8.900001 6.7999997 0.55642
8.900001 6.9 0.54479
8.900001 7.0 0.53572005
8.900001 7.1 0.53136003
8.900001 7.2000003 0.53368
8.900001 7.2999997 0.54419005
8.900001 7.4 0.56358004
8.900001 7.5 0.59143806
8.900001 7.6 0.62599605
8.900001 7.7000003 0.6641634
8.900001 7.7999997 0.70170206
8.900001 7.9 0.73367304
8.900001 8.0 0.7551
8.900001 8.099999 0.761771
8.900001 8.2 0.751051
8.900001 8.3 0.722557
8.900001 8.400001 0.67851
8.900001 8.5 0.62365603
8.900001 8.599999 0.56468004
8.900001 8.7 0.50913
8.900001 8.8 0.46408004
8.900001 8.900001 0.43466005
8.900001 9.0 0.42285
8.900001 9.099999 0.42684004
8.900001 9.2 0.44114003
8.900001 9.3 0.45753002
8.900001 9.400001 0.46671003
8.900001 9.5 0.46044004
8.900001 9.599999 0.43356004
8.900001 9.7 0.38549003
8.900001 9.8 0.32077003
8.900001 9.900001 0.24842003
8.900001 10.0 0.18010002
9.0 0.0999999 0.19289002
9.0 0.19999981 0.26179004
9.0 0.3000002 0.33240002
9.0 0.4000001 0.39388004
9.0 0.5 0.43832004
9.0 0.5999999 0.46210003
9.0 0.6999998 0.46640003
9.0 0.8000002 0.45651004
9.0 0.9000001 0.44034
9.0 1.0 0.42659003
9.0 1.0999999 0.42285
9.0 1.2 0.43414003
9.0 1.3 0.46212003
9.0 1.4000001 0.50501
9.0 1.5 0.55821
9.0 1.5999999 0.615327
9.0 1.7 0.6694685
9.0 1.8 0.714416
9.0 1.9000001 0.745576
9.0 2.0 0.76052403
9.0 2.1 0.75911605
9.0 2.2 0.74323803
9.0 2.3 0.716278
9.0 2.4 0.682451
9.0 2.5 0.64613706
9.0 2.6 0.61129004
9.0 2.7 0.581031
9.0 2.8 0.55742
9.0 2.9 0.54143
9.0 3.0 0.53302
9.0 3.1 0.53139
9.0 3.2 0.53521
9.0 3.3 0.54287004
9.0 3.4 0.55275005
9.0 3.5 0.56336004
9.0 3.6 0.573477
9.0 3.7 0.582207
9.0 3.8 0.588988
9.0 3.9 0.593568
9.0 4.0 0.595956
9.0 4.1 0.59635705
9.0 4.2 0.595116
9.0 4.3 0.592651
9.0 4.4 0.58941203
9.0 4.5 0.585838
9.0 4.6 0.58233106
9.0 4.7 0.579234
9.0 4.8 0.57682204
9.0 4.9 0.575294
9.0 5.0 0.57477105
9.0 5.1 0.575294
9.0 5.2 0.57682204
9.0 5.3 0.579234
9.0 5.4 0.58233106
9.0 5.5 0.585838
9.0 5.6 0.58941203
9.0 5.7 0.592651
9.0 5.8 0.595116
9.0 5.9 0.59635705
9.0 6.0 0.595956
9.0 6.1 0.593568
9.0 6.2000003 0.588988
9.0 6.2999997 0.582207
9.0 6.4 0.573477
9.0 6.5 0.56336004
9.0 6.6 0.55275005
9.0 6.7000003 0.54287004
9.0 6.7999997 0.53521
9.0 6.9 0.53139
9.0 7.0 0.53302
9.0 7.1 0.54143
9.0 7.2000003 0.55742
9.0 7.2999997 0.581031
9.0 7.4 0.61129004
9.0 7.5 0.64613706
9.0 7.6 0.682451
9.0 7.7000003 0.716278
9.0 7.7999997 0.74323803
9.0 7.9 0.75911605
9.0 8.0 0.76052403
9.0 8.099999 0.745576
9.0 8.2 0.714416
9.0 8.3 0.6694685
9.0 8.400001 0.615327
9.0 8.5 0.55821
9.0 8.599999 0.50501
9.0 8.7 0.46212003
9.0 8.8 0.43414003
9.0 8.900001 0.42285
9.0 9.0 0.42659003
9.0 9.099999 0.44034
9.0 9.2 0.45651004
9.0 9.3 0.46640003
9.0 9.400001 0.46210003
9.0 9.5 0.43832004
9.0 9.599999 0.39388004
9.0 9.7 0.33240002
9.0 9.8 0.26179004
9.0 9.900001 0.19289002
9.0 10.0 0.13706005
9.099999 0.0999999 0.14569002
9.099999 0.19999981 0.20355004
9.099999 0.3000002 0.27228004
9.099999 0.4000001 0.34097004
9.099999 0.5 0.39965004
9.099999 0.5999999 0.44128
9.099999 0.6999998 0.46297005
9.099999 0.8000002 0.46621
9.099999 0.9000001 0.45616004
9.099999 1.0 0.44034
9.099999 1.0999999 0.42684004
9.099999 1.2 0.42271003
9.099999 1.3 0.43264005
9.099999 1.4000001 0.45832002
9.099999 1.5 0.49832
9.099999 1.5999999 0.54864
9.099999 1.7 0.603622
9.099999 1.8 0.657019
9.099999 1.9000001 0.703059
9.099999 2.0 0.73727304
9.099999 2.1 0.75701004
9.099999 2.2 0.76159304
9.099999 2.3 0.752159
9.099999 2.4 0.73126006
9.099999 2.5 0.702337
9.099999 2.6 0.66915345
9.099999 2.7 0.635303
9.099999 2.8 0.60382205
9.099999 2.9 0.57696
9.099999 3.0 0.55608004
9.099999 3.1 0.54172003
9.099999 3.2 0.53368
9.099999 3.3 0.53123003
9.099999 3.4 0.53332
9.099999 3.5 0.53872
9.099999 3.6 0.54622
9.099999 3.7 0.55474
9.099999 3.8 0.56336004
9.099999 3.9 0.571416
9.099999 4.0 0.578462
9.099999 4.1 0.58426106
9.099999 4.2 0.58874905
9.099999 4.3 0.591997
9.099999 4.4 0.59416705
9.099999 4.5 0.59546906
9.099999 4.6 0.59613705
9.099999 4.7 0.596391
9.099999 4.8 0.59642404
9.099999 4.9 0.596382
9.099999 5.0 0.59635705
9.099999 5.1 0.596382
9.099999 5.2 0.59642404
9.099999 5.3 0.596391
9.099999 5.4 0.59613705
9.099999 5.5 0.59546906
9.099999 5.6 0.59416705
9.099999 5.7 0.591997
9.099999 5.8 0.58874905
9.099999 5.9 0.58426106
9.099999 6.0 0.578462
9.099999 6.1 0.571416
9.099999 6.2000003 0.56336004
9.099999 6.2999997 0.55474
9.099999 6.4 0.54622
9.099999 6.5 0.53872
9.099999 6.6 0.53332
9.099999 6.7000003 0.53123003
9.099999 6.7999997 0.53368
9.099999 6.9 0.54172003
9.099999 7.0 0.55608004
9.099999 7.1 0.57696
9.099999 7.2000003 0.60382205
9.099999 7.2999997 0.635303
9.099999 7.4 0.66915345
9.099999 7.5 0.702337
9.099999 7.6 0.73126006
9.099999 7.7000003 0.752159
9.099999 7.7999997 0.76159304
9.099999 7.9 0.75701004
9.099999 8.0 0.73727304
9.099999 8.099999 0.703059
9.099999 8.2 0.657019
9.099999 8.3 0.603622
9.099999 8.400001 0.54864
9.099999 8.5 0.49832
9.099999 8.599999 0.45832002
9.099999 8.7 0.43264005
9.099999 8.8 0.42271003
9.099999 8.900001 0.42684004
9.099999 9.0 0.44034
9.099999 9.099999 0.45616004
9.099999 9.2 0.46621
9.099999 9.3 0.46297005
9.099999 9.400001 0.44128
9.099999 9.5 0.39965004
9.099999 9.599999 0.34097004
9.099999 9.7 0.27228004
9.099999 9.8 0.20355004
9.099999 9.900001 0.14569002
9.099999 10.0 0.10814005
9.2 0.0999999 0.11250001
9.2 0.19999981 0.15292001
9.2 0.3000002 0.21178004
9.2 0.4000001 0.27978003
9.2 0.5 0.34660003
9.2 0.5999999 0.40301004
9.2 0.6999998 0.44271
9.2 0.8000002 0.46324003
9.2 0.9000001 0.46621
9.2 1.0 0.45651004
9.2 1.0999999 0.44114003
9.2 1.2 0.42763004
9.2 1.3 0.42254
9.2 1.4000001 0.43039003
9.2 1.5 0.45298004
9.2 1.5999999 0.48936003
9.2 1.7 0.53620005
9.2 1.8 0.588584
9.2 1.9000001 0.64095
9.2 2.0 0.68797004
9.2 2.1 0.72530705
9.2 2.2 0.75010604
9.2 2.3 0.76118404
9.2 2.4 0.758956
9.2 2.5 0.745162
9.2 2.6 0.72244805
9.2 2.7 0.69392204
9.2 2.8 0.66273105
9.2 2.9 0.63171005
9.2 3.0 0.60315305
9.2 3.1 0.578688
9.2 3.2 0.55926
9.2 3.3 0.54518
9.2 3.4 0.53626
9.2 3.5 0.53194004
9.2 3.6 0.53143007
9.2 3.7 0.53384006
9.2 3.8 0.53828
9.2 3.9 0.54395
9.2 4.0 0.55018
9.2 4.1 0.55642
9.2 4.2 0.56231004
9.2 4.3 0.56757903
9.2 4.4 0.572106
9.2 4.5 0.575838
9.2 4.6 0.57878405
9.2 4.7 0.58098805
9.2 4.8 0.582507
9.2 4.9 0.58339405
9.2 5.0 0.58368504
9.2 5.1 0.58339405
9.2 5.2 0.582507
9.2 5.3 0.58098805
9.2 5.4 0.57878405
9.2 5.5 0.575838
9.2 5.6 0.572106
9.2 5.7 0.56757903
9.2 5.8 0.56231004
9.2 5.9 0.55642
9.2 6.0 0.55018
9.2 6.1 0.54395
9.2 6.2000003 0.53828
9.2 6.2999997 0.53384006
9.2 6.4 0.53143007
9.2 6.5 0.53194004
9.2 6.6 0.53626
9.2 6.7000003 0.54518
9.2 6.7999997 0.55926
9.2 6.9 0.578688
9.2 7.0 0.60315305
9.2 7.1 0.63171005
9.2 7.2000003 0.66273105
9.2 7.2999997 0.69392204
9.2 7.4 0.72244805
9.2 7.5 0.745162
9.2 7.6 0.758956
9.2 7.7000003 0.76118404
9.2 7.7999997 0.75010604
9.2 7.9 0.72530705
9.2 8.0 0.68797004
9.2 8.099999 0.64095
9.2 8.2 0.588584
9.2 8.3 0.53620005
9.2 8.400001 0.48936003
9.2 8.5 0.45298004
9.2 8.599999 0.43039003
9.2 8.7 0.42254
9.2 8.8 0.42763004
9.2 8.900001 0.44114003
9.2 9.0 0.45651004
9.2 9.099999 0.46621
9.2 9.2 0.46324003
9.2 9.3 0.44271
9.2 9.400001 0.40301004
9.2 9.5 0.34660003
9.2 9.599999 0.27978003
9.2 9.7 0.21178004
9.2 9.8 0.15292001
9.2 9.900001 0.11250001
9.2 10.0 0.09669006
9.3 0.0999999 0.09731001
9.3 0.19999981 0.11621004
9.3 0.3000002 0.15833002
9.3 0.4000001 0.21736002
9.3 0.5 0.28429002
9.3 0.5999999 0.34939003
9.3 0.6999998 0.40412003
9.3 0.8000002 0.44271
9.3 0.9000001 0.46297005
9.3 1.0 0.46640003
9.3 1.0999999 0.45753002
9.3 1.2 0.44276005
9.3 1.3 0.42905003
9.3 1.4000001 0.42257005
9.3 1.5 0.42773002
9.3 1.5999999 0.44655004
9.3 1.7 0.47858003
9.3 1.8 0.52124006
9.3 1.9000001 0.57039005
9.3 2.0 0.621162
9.3 2.1 0.6687029
9.3 2.2 0.708857
9.3 2.3 0.738619
9.3 2.4 0.75636405
9.3 2.5 0.761851
9.3 2.6 0.756042
9.3 2.7 0.74080503
9.3 2.8 0.71856105
9.3 2.9 0.69193405
9.3 3.0 0.6634475
9.3 3.1 0.635303
9.3 3.2 0.60923404
9.3 3.3 0.586453
9.3 3.4 0.56765604
9.3 3.5 0.55308
9.3 3.6 0.54262
9.3 3.7 0.53586
9.3 3.8 0.53228
9.3 3.9 0.53123003
9.3 4.0 0.53209
9.3 4.1 0.53427005
9.3 4.2 0.53724
9.3 4.3 0.54058003
9.3 4.4 0.54395
9.3 4.5 0.54711
9.3 4.6 0.54986006
9.3 4.7 0.5521
9.3 4.8 0.55374
9.3 4.9 0.55474
9.3 5.0 0.55507004
9.3 5.1 0.55474
9.3 5.2 0.55374
9.3 5.3 0.5521
9.3 5.4 0.54986006
9.3 5.5 0.54711
9.3 5.6 0.54395
9.3 5.7 0.54058003
9.3 5.8 0.53724
9.3 5.9 0.53427005
9.3 6.0 0.53209
9.3 6.1 0.53123003
9.3 6.2000003 0.53228
9.3 6.2999997 0.53586
9.3 6.4 0.54262
9.3 6.5 0.55308
9.3 6.6 0.56765604
9.3 6.7000003 0.586453
9.3 6.7999997 0.60923404
9.3 6.9 0.635303
9.3 7.0 0.6634475
9.3 7.1 0.69193405
9.3 7.2000003 0.71856105
9.3 7.2999997 0.74080503
9.3 7.4 0.756042
9.3 7.5 0.761851
9.3 7.6 0.75636405
9.3 7.7000003 0.738619
9.3 7.7999997 0.708857
9.3 7.9 0.6687029
9.3 8.0 0.621162
9.3 8.099999 0.57039005
9.3 8.2 0.52124006
9.3 8.3 0.47858003
9.3 8.400001 0.44655004
9.3 8.5 0.42773002
9.3 8.599999 0.42257005
9.3 8.7 0.42905003
9.3 8.8 0.44276005
9.3 8.900001 0.45753002
9.3 9.0 0.46640003
9.3 9.099999 0.46297005
9.3 9.2 0.44271
9.3 9.3 0.40412003
9.3 9.400001 0.34939003
9.3 9.5 0.28429002
9.3 9.599999 0.21736002
9.3 9.7 0.15833002
9.3 9.8 0.11621004
9.3 9.900001 0.09731001
9.3 10.0 0.10374004
9.400001 0.0999999 0.10167003
9.400001 0.19999981 0.09808004
9.400001 0.3000002 0.1189
9.400001 0.4000001 0.16168004
9.400001 0.5 0.22018003
9.400001 0.5999999 0.28579003
9.400001 0.6999998 0.34939003
9.400001 0.8000002 0.40301004
9.400001 0.9000001 0.44128
9.400001 1.0 0.46210003
9.400001 1.0999999 0.46671003
9.400001 1.2 0.45914003
9.400001 1.3 0.44519004
9.400001 1.4000001 0.43125004
9.400001 1.5 0.42312002
9.400001 1.5999999 0.42514002
9.400001 1.7 0.43960002
9.400001 1.8 0.46661
9.400001 1.9000001 0.50433004
9.400001 2.0 0.54943
9.400001 2.1 0.59776604
9.400001 2.2 0.645012
9.400001 2.3 0.687255
9.400001 2.4 0.72143304
9.400001 2.5 0.745576
9.400001 2.6 0.758876
9.400001 2.7 0.76159304
9.400001 2.8 0.754854
9.400001 2.9 0.740387
9.400001 3.0 0.72024405
9.400001 3.1 0.69654804
9.400001 3.2 0.6712793
9.400001 3.3 0.64613706
9.400001 3.4 0.622451
9.400001 3.5 0.601157
9.400001 3.6 0.58281505
9.400001 3.7 0.56765604
9.400001 3.8 0.55564004
9.400001 3.9 0.54655004
9.400001 4.0 0.54004
9.400001 4.1 0.53567004
9.400001 4.2 0.53302
9.400001 4.3 0.53167003
9.400001 4.4 0.53124005
9.400001 4.5 0.53139
9.400001 4.6 0.53187
9.400001 4.7 0.53244
9.400001 4.8 0.53296006
9.400001 4.9 0.53332
9.400001 5.0 0.53344
9.400001 5.1 0.53332
9.400001 5.2 0.53296006
9.400001 5.3 0.53244
9.400001 5.4 0.53187
9.400001 5.5 0.53139
9.400001 5.6 0.53124005
9.400001 5.7 0.53167003
9.400001 5.8 0.53302
9.400001 5.9 0.53567004
9.400001 6.0 0.54004
9.400001 6.1 0.54655004
9.400001 6.2000003 0.55564004
9.400001 6.2999997 0.56765604
9.400001 6.4 0.58281505
9.400001 6.5 0.601157
9.400001 6.6 0.622451
9.400001 6.7000003 0.64613706
9.400001 6.7999997 0.6712793
9.400001 6.9 0.69654804
9.400001 7.0 0.72024405
9.400001 7.1 0.740387
9.400001 7.2000003 0.754854
9.400001 7.2999997 0.76159304
9.400001 7.4 0.758876
9.400001 7.5 0.745576
9.400001 7.6 0.72143304
9.400001 7.7000003 0.687255
9.400001 7.7999997 0.645012
9.400001 7.9 0.59776604
9.400001 8.0 0.54943
9.400001 8.099999 0.50433004
9.400001 8.2 0.46661
9.400001 8.3 0.43960002
9.400001 8.400001 0.42514002
9.400001 8.5 0.42312002
9.400001 8.599999 0.43125004
9.400001 8.7 0.44519004
9.400001 8.8 0.45914003
9.400001 8.900001 0.46671003
9.400001 9.0 0.46210003
9.400001 9.099999 0.44128
9.400001 9.2 0.40301004
9.400001 9.3 0.34939003
9.400001 9.400001 0.28579003
9.400001 9.5 0.22018003
9.400001 9.599999 0.16168004
9.400001 9.7 0.1189
9.400001 9.8 0.09808004
9.400001 9.900001 0.10167003
9.400001 10.0 0.12764001
9.5 0.0999999 0.12419003
9.5 0.19999981 0.10048002
9.5 0.3000002 0.098670006
9.5 0.4000001 0.12031001
9.5 0.5 0.16282004
9.5 0.5999999 0.22018003
9.5 0.6999998 0.28429002
9.5 0.8000002 0.34660003
9.5 0.9000001 0.39965004
9.5 1.0 0.43832004
9.5 1.0999999 0.46044004
9.5 1.2 0.46692005
9.5 1.3 0.46119004
9.5 1.4000001 0.44841003
9.5 1.5 0.43438002
9.5 1.5999999 0.42456
9.5 1.7 0.42320004
9.5 1.8 0.43288
9.5 1.9000001 0.45428005
9.5 2.0 0.48628002
9.5 2.1 0.52639
9.5 2.2 0.57121
9.5 2.3 0.61699605
9.5 2.4 0.6601694
9.5 2.5 0.69771606
9.5 2.6 0.727445
9.5 2.7 0.748103
9.5 2.8 0.75934905
9.5 2.9 0.76164
9.5 3.0 0.756042
9.5 3.1 0.74401903
9.5 3.2 0.72722703
9.5 3.3 0.707333
9.5 3.4 0.68587404
9.5 3.5 0.6641634
9.5 3.6 0.643243
9.5 3.7 0.623866
9.5 3.8 0.60651505
9.5 3.9 0.59143806
9.5 4.0 0.578688
9.5 4.1 0.568179
9.5 4.2 0.55972004
9.5 4.3 0.55308
9.5 4.4 0.54799
9.5 4.5 0.54419005
9.5 4.6 0.54143
9.5 4.7 0.53951
9.5 4.8 0.53826004
9.5 4.9 0.53755003
9.5 5.0 0.53733003
9.5 5.1 0.53755003
9.5 5.2 0.53826004
9.5 5.3 0.53951
9.5 5.4 0.54143
9.5 5.5 0.54419005
9.5 5.6 0.54799
9.5 5.7 0.55308
9.5 5.8 0.55972004
9.5 5.9 0.568179
9.5 6.0 0.578688
9.5 6.1 0.59143806
9.5 6.2000003 0.60651505
9.5 6.2999997 0.623866
9.5 6.4 0.643243
9.5 6.5 0.6641634
9.5 6.6 0.68587404
9.5 6.7000003 0.707333
9.5 6.7999997 0.72722703
9.5 6.9 0.74401903
9.5 7.0 0.756042
9.5 7.1 0.76164
9.5 7.2000003 0.75934905
9.5 7.2999997 0.748103
9.5 7.4 0.727445
9.5 7.5 0.69771606
9.5 7.6 0.6601694
9.5 7.7000003 0.61699605
9.5 7.7999997 0.57121
9.5 7.9 0.52639
9.5 8.0 0.48628002
9.5 8.099999 0.45428005
9.5 8.2 0.43288
9.5 8.3 0.42320004
9.5 8.400001 0.42456
9.5 8.5 0.43438002
9.5 8.599999 0.44841003
9.5 8.7 0.46119004
9.5 8.8 0.46692005
9.5 8.900001 0.46044004
9.5 9.0 0.43832004
9.5 9.099999 0.39965004
9.5 9.2 0.34660003
9.5 9.3 0.28429002
9.5 9.400001 0.22018003
9.5 9.5 0.16282004
9.5 9.599999 0.12031001
9.5 9.7 0.098670006
9.5 9.8 0.10048002
9.5 9.900001 0.12419003
9.5 10.0 0.16418004
9.599999 0.0999999 0.16057003
9.599999 0.19999981 0.12219006
9.599999 0.3000002 0.099950016
9.599999 0.4000001 0.09889001
9.599999 0.5 0.12031001
9.599999 0.5999999 0.16168004
9.599999 0.6999998 0.21736002
9.599999 0.8000002 0.27978003
9.599999 0.9000001 0.34097004
9.599999 1.0 0.39388004
9.599999 1.0999999 0.43356004
9.599999 1.2 0.45769003
9.599999 1.3 0.46672004
9.599999 1.4000001 0.46344003
9.599999 1.5 0.45232
9.599999 1.5999999 0.43856004
9.599999 1.7 0.42723003
9.599999 1.8 0.42252
9.599999 1.9000001 0.42723003
9.599999 2.0 0.44257003
9.599999 2.1 0.46816003
9.599999 2.2 0.5023
9.599999 2.3 0.54237
9.599999 2.4 0.585255
9.599999 2.5 0.627802
9.599999 2.6 0.6671664
9.599999 2.7 0.701075
9.599999 2.8 0.727971
9.599999 2.9 0.74704504
9.599999 3.0 0.758183
9.599999 3.1 0.761855
9.599999 3.2 0.758956
9.599999 3.3 0.750655
9.599999 3.4 0.73823804
9.599999 3.5 0.72299105
9.599999 3.6 0.706098
9.599999 3.7 0.688584
9.599999 3.8 0.6712793
9.599999 3.9 0.654815
9.599999 4.0 0.639629
9.599999 4.1 0.62599605
9.599999 4.2 0.61405003
9.599999 4.3 0.60382205
9.599999 4.4 0.59527004
9.599999 4.5 0.58830506
9.599999 4.6 0.58281505
9.599999 4.7 0.578688
9.599999 4.8 0.57582104
9.599999 4.9 0.574135
9.599999 5.0 0.573579
9.599999 5.1 0.574135
9.599999 5.2 0.57582104
9.599999 5.3 0.578688
9.599999 5.4 0.58281505
9.599999 5.5 0.58830506
9.599999 5.6 0.59527004
9.599999 5.7 0.60382205
9.599999 5.8 0.61405003
9.599999 5.9 0.62599605
9.599999 6.0 0.639629
9.599999 6.1 0.654815
9.599999 6.2000003 0.6712793
9.599999 6.2999997 0.688584
9.599999 6.4 0.706098
9.599999 6.5 0.72299105
9.599999 6.6 0.73823804
9.599999 6.7000003 0.750655
9.599999 6.7999997 0.758956
9.599999 6.9 0.761855
9.599999 7.0 0.758183
9.599999 7.1 0.74704504
9.599999 7.2000003 0.727971
9.599999 7.2999997 0.701075
9.599999 7.4 0.6671664
9.599999 7.5 0.627802
9.599999 7.6 0.585255
9.599999 7.7000003 0.54237
9.599999 7.7999997 0.5023
9.599999 7.9 0.46816003
9.599999 8.0 0.44257003
9.599999 8.099999 0.42723003
9.599999 8.2 0.42252
9.599999 8.3 0.42723003
9.599999 8.400001 0.43856004
9.599999 8.5 0.45232
9.599999 8.599999 0.46344003
9.599999 8.7 0.46672004
9.599999 8.8 0.45769003
9.599999 8.900001 0.43356004
9.599999 9.0 0.39388004
9.599999 9.099999 0.34097004
9.599999 9.2 0.27978003
9.599999 9.3 0.21736002
9.599999 9.400001 0.16168004
9.599999 9.5 0.12031001
9.599999 9.599999 0.09889001
9.599999 9.7 0.099950016
9.599999 9.8 0.12219006
9.599999 9.900001 0.16057003
9.599999 10.0 0.20714003
9.7 0.0999999 0.20428002
9.7 0.19999981 0.15878004
9.7 0.3000002 0.12154001
9.7 0.4000001 0.099950016
9.7 0.5 0.098670006
9.7 0.5999999 0.1189
9.7 0.6999998 0.15833002
9.7 0.8000002 0.21178004
9.7 0.9000001 0.27228004
9.7 1.0 0.33240002
9.7 1.0999999 0.38549003
9.7 1.2 0.42667004
9.7 1.3 0.45342
9.7 1.4000001 0.46565002
9.7 1.5 0.46550003
9.7 1.5999999 0.45668003
9.7 1.7 0.44377005
9.7 1.8 0.43141
9.7 1.9000001 0.42367002
9.7 2.0 0.42353004
9.7 2.1 0.43264005
9.7 2.2 0.45130002
9.7 2.3 0.47858003
9.7 2.4 0.51263005
9.7 2.5 0.55101
9.7 2.6 0.591085
9.7 2.7 0.63028204
9.7 2.8 0.6663956
9.7 2.9 0.69771606
9.7 3.0 0.723114
9.7 3.1 0.74203604
9.7 3.2 0.75444704
9.7 3.3 0.76073503
9.7 3.4 0.76159304
9.7 3.5 0.757909
9.7 3.6 0.750655
9.7 3.7 0.74080503
9.7 3.8 0.72927004
9.7 3.9 0.716853
9.7 4.0 0.70422804
9.7 4.1 0.69193405
9.7 4.2 0.680381
9.7 4.3 0.6698629
9.7 4.4 0.66057795
9.7 4.5 0.652647
9.7 4.6 0.64613706
9.7 4.7 0.641074
9.7 4.8 0.63746405
9.7 4.9 0.635303
9.7 5.0 0.63458306
9.7 5.1 0.635303
9.7 5.2 0.63746405
9.7 5.3 0.641074
9.7 5.4 0.64613706
9.7 5.5 0.652647
9.7 5.6 0.66057795
9.7 5.7 0.6698629
9.7 5.8 0.680381
9.7 5.9 0.69193405
9.7 6.0 0.70422804
9.7 6.1 0.716853
9.7 6.2000003 0.72927004
9.7 6.2999997 0.74080503
9.7 6.4 0.750655
9.7 6.5 0.757909
9.7 6.6 0.76159304
9.7 6.7000003 0.76073503
9.7 6.7999997 0.75444704
9.7 6.9 0.74203604
9.7 7.0 0.723114
9.7 7.1 0.69771606
9.7 7.2000003 0.6663956
9.7 7.2999997 0.63028204
9.7 7.4 0.591085
9.7 7.5 0.55101
9.7 7.6 0.51263005
9.7 7.7000003 0.47858003
9.7 7.7999997 0.45130002
9.7 7.9 0.43264005
9.7 8.0 0.42353004
9.7 8.099999 0.42367002
9.7 8.2 0.43141
9.7 8.3 0.44377005
9.7 8.400001 0.45668003
9.7 8.5 0.46550003
9.7 8.599999 0.46565002
9.7 8.7 0.45342
9.7 8.8 0.42667004
9.7 8.900001 0.38549003
9.7 9.0 0.33240002
9.7 9.099999 0.27228004
9.7 9.2 0.21178004
9.7 9.3 0.15833002
9.7 9.400001 0.1189
9.7 9.5 0.098670006
9.7 9.599999 0.099950016
9.7 9.7 0.12154001
9.7 9.8 0.15878004
9.7 9.900001 0.20428002
9.7 10.0 0.24932003
9.8 0.0999999 0.24764004
9.8 0.19999981 0.20332003
9.8 0.3000002 0.15878004
9.8 0.4000001 0.12219006
9.8 0.5 0.10048002
9.8 0.5999999 0.09808004
9.8 0.6999998 0.11621004
9.8 0.8000002 0.15292001
9.8 0.9000001 0.20355004
9.8 1.0 0.26179004
9.8 1.0999999 0.32077003
9.8 1.2 0.37419003
9.8 1.3 0.41721004
9.8 1.4000001 0.44705003
9.8 1.5 0.46311003
9.8 1.5999999 0.46679002
9.8 1.7 0.46106002
9.8 1.8 0.4498
9.8 1.9000001 0.4372
9.8 2.0 0.42710003
9.8 2.1 0.42257005
9.8 2.2 0.42564002
9.8 2.3 0.43717003
9.8 2.4 0.45694003
9.8 2.5 0.48386002
9.8 2.6 0.51618004
9.8 2.7 0.55181
9.8 2.8 0.588584
9.8 2.9 0.624486
9.8 3.0 0.65780884
9.8 3.1 0.687255
9.8 3.2 0.71197504
9.8 3.3 0.731552
9.8 3.4 0.74595004
9.8 3.5 0.755441
9.8 3.6 0.76052403
9.8 3.7 0.761841
9.8 3.8 0.760105
9.8 3.9 0.756042
9.8 4.0 0.750342
9.8 4.1 0.743631
9.8 4.2 0.736455
9.8 4.3 0.72927004
9.8 4.4 0.72244805
9.8 4.5 0.716278
9.8 4.6 0.71098
9.8 4.7 0.706717
9.8 4.8 0.70359904
9.8 4.9 0.70170206
9.8 5.0 0.701065
9.8 5.1 0.70170206
9.8 5.2 0.70359904
9.8 5.3 0.706717
9.8 5.4 0.71098
9.8 5.5 0.716278
9.8 5.6 0.72244805
9.8 5.7 0.72927004
9.8 5.8 0.736455
9.8 5.9 0.743631
9.8 6.0 0.750342
9.8 6.1 0.756042
9.8 6.2000003 0.760105
9.8 6.2999997 0.761841
9.8 6.4 0.76052403
9.8 6.5 0.755441
9.8 6.6 0.74595004
9.8 6.7000003 0.731552
9.8 6.7999997 0.71197504
9.8 6.9 0.687255
9.8 7.0 0.65780884
9.8 7.1 0.624486
9.8 7.2000003 0.588584
9.8 7.2999997 0.55181
9.8 7.4 0.51618004
9.8 7.5 0.48386002
9.8 7.6 0.45694003
9.8 7.7000003 0.43717003
9.8 7.7999997 0.42564002
9.8 7.9 0.42257005
9.8 8.0 0.42710003
9.8 8.099999 0.4372
9.8 8.2 0.4498
9.8 8.3 0.46106002
9.8 8.400001 0.46679002
9.8 8.5 0.46311003
9.8 8.599999 0.44705003
9.8 8.7 0.41721004
9.8 8.8 0.37419003
9.8 8.900001 0.32077003
9.8 9.0 0.26179004
9.8 9.099999 0.20355004
9.8 9.2 0.15292001
9.8 9.3 0.11621004
9.8 9.400001 0.09808004
9.8 9.5 0.10048002
