-3.0999999000000003 3.70000005 0.05044300164051052 50 165 62
-3.0999999000000003 3.79999995 0.0842449955220611 55 168 62
-3.0999999000000003 3.9000000999999997 0.0953610019944039 56 169 62
-3.0999999000000003 4.0 0.07916600296414 54 168 62
-3.0999999000000003 4.0999999 0.036648999088320755 48 164 62
-3.0999999000000003 4.19999981 -0.02545999946975297 40 158 62
-3.0999999000000003 4.30000019 -0.09601999860028887 32 150 62
-3.0999999000000003 4.4000001 -0.16208000437877013 25 143 61
-3.0999999000000003 4.5 -0.21212999489318635 20 137 59
-3.0999999000000003 4.5999999 -0.23917999917040778 18 133 59
-3.0999999000000003 4.69999981 -0.24274000444679927 17 133 59
-3.0999999000000003 4.80000019 -0.2292100042507756 18 135 59
-3.0999999000000003 4.9000001 -0.21025000461057924 20 137 59
-3.0999999000000003 5.0 -0.19959999655639388 21 138 60
-3.0 -5.0 -0.20441000194881176 21 138 60
-3.0 -4.9000001 -0.22202999934493567 19 136 59
-3.0 -4.80000019 -0.23930999635621836 17 133 59
-3.0 -4.69999981 -0.24288000128025605 17 133 59
-3.0 -4.5999999 -0.22383999739324972 19 135 59
-3.0 -4.5 -0.18013000428778125 23 141 60
-3.0 -4.4000001 -0.11698000195894764 29 148 61
-3.0 -4.30000019 -0.04524800208371782 38 156 62
-3.0 -4.19999981 0.02156000065531183 46 163 62
-3.0 -4.0999999 0.07086300106294374 53 167 62
-3.0 -4.0 0.09411399770992801 56 169 62
-3.0 -3.9000000999999997 0.08868999699449709 55 169 62
-3.0 -3.79999995 0.05819299882705409 51 166 62
-3.0 -3.70000005 0.011191000187444455 45 162 62
-3.0 -3.5999999000000003 -0.04112499951066784 38 156 62
-3.0 -3.5 -0.08772200270535113 33 151 62
-3.0 -3.4000000999999997 -0.12020000155126764 29 148 61
-3.0 -3.29999995 -0.13447000040285084 28 146 61
-3.0 -3.20000005 -0.1312000008058899 28 147 61
-3.0 -3.0999999000000003 -0.11528000180115172 30 148 61
-3.0 -3.0 -0.09430400359892532 32 151 62
-3.0 -2.9000000999999997 -0.07672300147244238 34 153 62
-3.0 -2.79999995 -0.06999500148384952 35 153 62
-3.0 -2.70000005 -0.07918199979296658 34 152 62
-3.0 -2.5999999 -0.10620000201818203 31 149 62
-3.0 -2.5 -0.1498000025323627 26 144 61
-3.0 -2.4000000999999997 -0.20611000034019755 21 138 60
-3.0 -2.29999995 -0.2696200005827546 15 129 58
-3.0 -2.20000005 -0.33428001329692675 10 121 55
-3.0 -2.0999999 -0.3945200139425228 6 112 52
-3.0 -2.0 -0.44600001059546757 3 104 50
-3.0 -1.89999998 -0.4860099856933968 1 98 47
-3.0 -1.7999999500000001 -0.5135800246405234 0 93 46
-3.0 -1.7000000499999999 -0.5292400116095393 0 91 45
-3.0 -1.60000002 -0.5346599813770938 0 90 44
-3.0 -1.5 -0.5321900242482324 0 90 44
-3.0 -1.39999998 -0.5243899828967951 0 92 45
-3.0 -1.2999999500000001 -0.513710021826334 0 93 46
-3.0 -1.2000000499999999 -0.502200006979964 0 95 46
-3.0 -1.10000002 -0.4913899904321587 1 97 47
-3.0 -1.0 -0.4822700026570649 1 98 48
-3.0 -0.8999999799999996 -0.47532999459396386 1 100 48
-3.0 -0.8000000099999998 -0.4706600001662836 2 100 48
-3.0 -0.6999999900000002 -0.46805000381012274 2 101 48
-3.0 -0.6000000199999995 -0.46711999241877433 2 101 48
-3.0 -0.5 -0.4673799867903955 2 101 48
-3.0 -0.4000000100000003 -0.4683600070184355 2 101 48
-3.0 -0.30000000999999976 -0.46961998911800695 2 100 48
-3.0 -0.20000000000000018 -0.4707899991185043 2 100 48
-3.0 -0.09999999999999964 -0.4715999953075871 2 100 48
-3.0 0.0 -0.47189000275342774 2 100 48
-3.0 0.10000000000000053 -0.4715999953075871 2 100 48
-3.0 0.20000000000000018 -0.4707899991185043 2 100 48
-3.0 0.30000000999999976 -0.46961998911800695 2 100 48
-3.0 0.4000000100000003 -0.4683600070184355 2 101 48
-3.0 0.5 -0.4673799867903955 2 101 48
-3.0 0.6000000200000004 -0.46711999241877433 2 101 48
-3.0 0.6999999900000002 -0.46805000381012274 2 101 48
-3.0 0.8000000099999998 -0.4706600001662836 2 100 48
-3.0 0.8999999800000005 -0.47532999459396386 1 100 48
-3.0 1.0 -0.4822700026570649 1 98 48
-3.0 1.1000000200000004 -0.4913899904321587 1 97 47
-3.0 1.2000000499999999 -0.502200006979964 0 95 46
-3.0 1.2999999500000001 -0.513710021826334 0 93 46
-3.0 1.3999999800000005 -0.5243899828967951 0 92 45
-3.0 1.5 -0.5321900242482324 0 90 44
-3.0 1.6000000200000004 -0.5346599813770938 0 90 44
-3.0 1.7000000499999999 -0.5292400116095393 0 91 45
-3.0 1.7999999500000001 -0.5135800246405234 0 93 46
-3.0 1.8999999800000005 -0.4860099856933968 1 98 47
-3.0 2.0 -0.44600001059546757 3 104 50
-3.0 2.0999999000000003 -0.3945200139425228 6 112 52
-3.0 2.20000005 -0.33428001329692675 10 121 55
-3.0 2.29999995 -0.2696200005827546 15 129 58
-3.0 2.4000000999999997 -0.20611000034019755 21 138 60
-3.0 2.5 -0.1498000025323627 26 144 61
-3.0 2.5999999000000003 -0.10620000201818203 31 149 62
-3.0 2.70000005 -0.07918199979296658 34 152 62
-3.0 2.79999995 -0.06999500148384952 35 153 62
-3.0 2.9000000999999997 -0.07672300147244238 34 153 62
-3.0 3.0 -0.09430400359892532 32 151 62
-3.0 3.0999999000000003 -0.11528000180115172 30 148 61
-3.0 3.20000005 -0.1312000008058899 28 147 61
-3.0 3.29999995 -0.13447000040285084 28 146 61
-3.0 3.4000000999999997 -0.12020000155126764 29 148 61
-3.0 3.5 -0.08772200270535113 33 151 62
-3.0 3.5999999000000003 -0.04112499951066784 38 156 62
-3.0 3.70000005 0.011191000187444455 45 162 62
-3.0 3.79999995 0.05819299882705409 51 166 62
-3.0 3.9000000999999997 0.08868999699449709 55 169 62
-3.0 4.0 0.09411399770992801 56 169 62
-3.0 4.0999999 0.07086300106294374 53 167 62
-3.0 4.19999981 0.02156000065531183 46 163 62
-3.0 4.30000019 -0.04524800208371782 38 156 62
-3.0 4.4000001 -0.11698000195894764 29 148 61
-3.0 4.5 -0.18013000428778125 23 141 60
-3.0 4.5999999 -0.22383999739324972 19 135 59
-3.0 4.69999981 -0.24288000128025605 17 133 59
-3.0 4.80000019 -0.23930999635621836 17 133 59
-3.0 4.9000001 -0.22202999934493567 19 136 59
-3.0 5.0 -0.20441000194881176 21 138 60
-2.9000000999999997 -5.0 -0.21409000532029437 20 137 59
-2.9000000999999997 -4.9000001 -0.23345999404680468 18 134 59
-2.9000000999999997 -4.80000019 -0.2438399939504418 17 133 59
-2.9000000999999997 -4.69999981 -0.23376999725511743 18 134 59
-2.9000000999999997 -4.5999999 -0.19824999643108532 21 139 60
-2.9000000999999997 -4.5 -0.1400199973851879 27 146 61
-2.9000000999999997 -4.4000001 -0.06864400157041739 35 153 62
-2.9000000999999997 -4.30000019 0.002292900018617372 44 161 62
-2.9000000999999997 -4.19999981 0.058896999810933326 51 166 62
-2.9000000999999997 -4.0999999 0.09059999858491352 56 169 62
-2.9000000999999997 -4.0 0.09270600280780983 56 169 62
-2.9000000999999997 -3.9000000999999997 0.06726299896237753 52 167 62
-2.9000000999999997 -3.79999995 0.0221740012775552 46 163 62
-2.9000000999999997 -3.70000005 -0.031106998863411395 39 157 62
-2.9000000999999997 -3.5999999000000003 -0.080568999144489 34 152 62
-2.9000000999999997 -3.5 -0.1165300019171781 30 148 61
-2.9000000999999997 -3.4000000999999997 -0.13372999468165092 28 146 61
-2.9000000999999997 -3.29999995 -0.1321399959471934 28 146 61
-2.9000000999999997 -3.20000005 -0.11654999767965035 30 148 61
-2.9000000999999997 -3.0999999000000003 -0.09499400048343376 32 151 62
-2.9000000999999997 -3.0 -0.07672300147244238 34 153 62
-2.9000000999999997 -2.9000000999999997 -0.07002799979115892 35 153 62
-2.9000000999999997 -2.79999995 -0.08057200204168014 34 152 62
-2.9000000999999997 -2.70000005 -0.11044999887985152 30 149 61
-2.9000000999999997 -2.5999999 -0.15810999235196355 25 143 61
-2.9000000999999997 -2.5 -0.2189999965907135 19 136 59
-2.9000000999999997 -2.4000000999999997 -0.2867200074692261 14 127 57
-2.9000000999999997 -2.29999995 -0.35431000526423717 8 118 54
-2.9000000999999997 -2.20000005 -0.41554000988782835 5 109 51
-2.9000000999999997 -2.0999999 -0.4657300113669822 2 101 49
-2.9000000999999997 -2.0 -0.502269983316566 0 95 46
-2.9000000999999997 -1.89999998 -0.5246300097685058 0 92 45
-2.9000000999999997 -1.7999999500000001 -0.5340499869729852 0 90 44
-2.9000000999999997 -1.7000000499999999 -0.5330299734535908 0 90 44
-2.9000000999999997 -1.60000002 -0.524730027441889 0 92 45
-2.9000000999999997 -1.5 -0.5123900171111438 0 94 46
-2.9000000999999997 -1.39999998 -0.4988799985463114 0 96 46
-2.9000000999999997 -1.2999999500000001 -0.4864700136453743 1 98 47
-2.9000000999999997 -1.2000000499999999 -0.47666001308808115 1 99 48
-2.9000000999999997 -1.10000002 -0.4702199997721603 2 100 48
-2.9000000999999997 -1.0 -0.46731999597015883 2 101 48
-2.9000000999999997 -0.8999999799999996 -0.4676299991784716 2 101 48
-2.9000000999999997 -0.8000000099999998 -0.4705399867304282 2 100 48
-2.9000000999999997 -0.6999999900000002 -0.4752700037737272 1 100 48
-2.9000000999999997 -0.6000000199999995 -0.481059997598803 1 99 48
-2.9000000999999997 -0.5 -0.48715999639860175 1 98 47
-2.9000000999999997 -0.4000000100000003 -0.4929499919900877 0 97 47
-2.9000000999999997 -0.30000000999999976 -0.49792998962608076 0 96 47
-2.9000000999999997 -0.20000000000000018 -0.5017399790279865 0 95 46
-2.9000000999999997 -0.09999999999999964 -0.5041199923203357 0 95 46
-2.9000000999999997 0.0 -0.5049300185383904 0 95 46
-2.9000000999999997 0.10000000000000053 -0.5041199923203357 0 95 46
-2.9000000999999997 0.20000000000000018 -0.5017399790279865 0 95 46
-2.9000000999999997 0.30000000999999976 -0.49792998962608076 0 96 47
-2.9000000999999997 0.4000000100000003 -0.4929499919900877 0 97 47
-2.9000000999999997 0.5 -0.48715999639860175 1 98 47
-2.9000000999999997 0.6000000200000004 -0.481059997598803 1 99 48
-2.9000000999999997 0.6999999900000002 -0.4752700037737272 1 100 48
-2.9000000999999997 0.8000000099999998 -0.4705399867304282 2 100 48
-2.9000000999999997 0.8999999800000005 -0.4676299991784716 2 101 48
-2.9000000999999997 1.0 -0.46731999597015883 2 101 48
-2.9000000999999997 1.1000000200000004 -0.4702199997721603 2 100 48
-2.9000000999999997 1.2000000499999999 -0.47666001308808115 1 99 48
-2.9000000999999997 1.2999999500000001 -0.4864700136453743 1 98 47
-2.9000000999999997 1.3999999800000005 -0.4988799985463114 0 96 46
-2.9000000999999997 1.5 -0.5123900171111438 0 94 46
-2.9000000999999997 1.6000000200000004 -0.524730027441889 0 92 45
-2.9000000999999997 1.7000000499999999 -0.5330299734535908 0 90 44
-2.9000000999999997 1.7999999500000001 -0.5340499869729852 0 90 44
-2.9000000999999997 1.8999999800000005 -0.5246300097685058 0 92 45
-2.9000000999999997 2.0 -0.502269983316566 0 95 46
-2.9000000999999997 2.0999999000000003 -0.4657300113669822 2 101 49
-2.9000000999999997 2.20000005 -0.41554000988782835 5 109 51
-2.9000000999999997 2.29999995 -0.35431000526423717 8 118 54
-2.9000000999999997 2.4000000999999997 -0.2867200074692261 14 127 57
-2.9000000999999997 2.5 -0.2189999965907135 19 136 59
-2.9000000999999997 2.5999999000000003 -0.15810999235196355 25 143 61
-2.9000000999999997 2.70000005 -0.11044999887985152 30 149 61
-2.9000000999999997 2.79999995 -0.08057200204168014 34 152 62
-2.9000000999999997 2.9000000999999997 -0.07002799979115892 35 153 62
-2.9000000999999997 3.0 -0.07672300147244238 34 153 62
-2.9000000999999997 3.0999999000000003 -0.09499400048343376 32 151 62
-2.9000000999999997 3.20000005 -0.11654999767965035 30 148 61
-2.9000000999999997 3.29999995 -0.1321399959471934 28 146 61
-2.9000000999999997 3.4000000999999997 -0.13372999468165092 28 146 61
-2.9000000999999997 3.5 -0.1165300019171781 30 148 61
-2.9000000999999997 3.5999999000000003 -0.080568999144489 34 152 62
-2.9000000999999997 3.70000005 -0.031106998863411395 39 157 62
-2.9000000999999997 3.79999995 0.0221740012775552 46 163 62
-2.9000000999999997 3.9000000999999997 0.06726299896237753 52 167 62
-2.9000000999999997 4.0 0.09270600280780983 56 169 62
-2.9000000999999997 4.0999999 0.09059999858491352 56 169 62
-2.9000000999999997 4.19999981 0.058896999810933326 51 166 62
-2.9000000999999997 4.30000019 0.002292900018617372 44 161 62
-2.9000000999999997 4.4000001 -0.06864400157041739 35 153 62
-2.9000000999999997 4.5 -0.1400199973851879 27 146 61
-2.9000000999999997 4.5999999 -0.19824999643108532 21 139 60
-2.9000000999999997 4.69999981 -0.23376999725511743 18 134 59
-2.9000000999999997 4.80000019 -0.2438399939504418 17 133 59
-2.9000000999999997 4.9000001 -0.23345999404680468 18 134 59
-2.9000000999999997 5.0 -0.21409000532029437 20 137 59
-2.79999995 -5.0 -0.22547000708316278 19 135 59
-2.79999995 -4.9000001 -0.2414799923182559 17 133 59
-2.79999995 -4.80000019 -0.24076999790486525 17 133 59
-2.79999995 -4.69999981 -0.21511000470840785 20 136 59
-2.79999995 -4.5999999 -0.16411000527376107 25 143 61
-2.79999995 -4.5 -0.09520000276355978 32 151 62
-2.79999995 -4.4000001 -0.02139799986993407 41 158 62
-2.79999995 -4.30000019 0.042447000050436 49 164 62
-2.79999995 -4.19999981 0.08369600055836346 55 168 62
-2.79999995 -4.0999999 0.09518300084737918 56 169 62
-2.79999995 -4.0 0.07682800373631382 54 168 62
-2.79999995 -3.9000000999999997 0.035292000446147 48 164 62
-2.79999995 -3.79999995 -0.01810199871611884 41 159 62
-2.79999995 -3.70000005 -0.07049299842119261 35 153 62
-2.79999995 -3.5999999000000003 -0.11077000173581053 30 149 61
-2.79999995 -3.5 -0.13212999629954714 28 146 61
-2.79999995 -3.4000000999999997 -0.13345000101473736 28 146 61
-2.79999995 -3.29999995 -0.11900000320629234 29 148 61
-2.79999995 -3.20000005 -0.09708000011180729 32 150 62
-2.79999995 -3.0999999000000003 -0.07766100057031888 34 152 62
-2.79999995 -3.0 -0.06999500148384952 35 153 62
-2.79999995 -2.9000000999999997 -0.08057200204168014 34 152 62
-2.79999995 -2.79999995 -0.11191999830973454 30 149 61
-2.79999995 -2.70000005 -0.16241000511596515 25 143 61
-2.79999995 -2.5999999 -0.2269300068653996 19 135 59
-2.79999995 -2.5 -0.2982099947577419 13 126 57
-2.79999995 -2.4000000999999997 -0.36842000445425105 8 116 54
-2.79999995 -2.29999995 -0.4305599929113364 4 107 51
-2.79999995 -2.20000005 -0.4796000119478471 1 99 48
-2.79999995 -2.0999999 -0.5129799839573982 0 94 46
-2.79999995 -2.0 -0.5306299926613314 0 91 44
-2.79999995 -1.89999998 -0.5345600255280645 0 90 44
-2.79999995 -1.7999999500000001 -0.5281699892534533 0 91 45
-2.79999995 -1.7000000499999999 -0.5154399873652763 0 93 45
-2.79999995 -1.60000002 -0.5002999909059129 0 96 46
-2.79999995 -1.5 -0.48603001325125095 1 98 47
-2.79999995 -1.39999998 -0.4750100076356959 1 100 48
-2.79999995 -1.2999999500000001 -0.46858999184865735 2 101 48
-2.79999995 -1.2000000499999999 -0.46720999454682044 2 101 48
-2.79999995 -1.10000002 -0.4705399867304282 2 100 48
-2.79999995 -1.0 -0.4777500029440775 1 99 48
-2.79999995 -0.8999999799999996 -0.48776999080271033 1 98 47
-2.79999995 -0.8000000099999998 -0.4994300003637731 0 96 46
-2.79999995 -0.6999999900000002 -0.511669993021135 0 94 46
-2.79999995 -0.6000000199999995 -0.523590028749201 0 92 45
-2.79999995 -0.5 -0.5344700216336083 0 90 44
-2.79999995 -0.4000000100000003 -0.5438299779888792 0 88 44
-2.79999995 -0.30000000999999976 -0.5513399836319142 0 87 43
-2.79999995 -0.20000000000000018 -0.556800008515177 0 86 43
-2.79999995 -0.09999999999999964 -0.5601099731409307 0 86 42
-2.79999995 0.0 -0.5612199905547812 0 86 42
-2.79999995 0.10000000000000053 -0.5601099731409307 0 86 42
-2.79999995 0.20000000000000018 -0.556800008515177 0 86 43
-2.79999995 0.30000000999999976 -0.5513399836319142 0 87 43
-2.79999995 0.4000000100000003 -0.5438299779888792 0 88 44
-2.79999995 0.5 -0.5344700216336083 0 90 44
-2.79999995 0.6000000200000004 -0.523590028749201 0 92 45
-2.79999995 0.6999999900000002 -0.511669993021135 0 94 46
-2.79999995 0.8000000099999998 -0.4994300003637731 0 96 46
-2.79999995 0.8999999800000005 -0.48776999080271033 1 98 47
-2.79999995 1.0 -0.4777500029440775 1 99 48
-2.79999995 1.1000000200000004 -0.4705399867304282 2 100 48
-2.79999995 1.2000000499999999 -0.46720999454682044 2 101 48
-2.79999995 1.2999999500000001 -0.46858999184865735 2 101 48
-2.79999995 1.3999999800000005 -0.4750100076356959 1 100 48
-2.79999995 1.5 -0.48603001325125095 1 98 47
-2.79999995 1.6000000200000004 -0.5002999909059129 0 96 46
-2.79999995 1.7000000499999999 -0.5154399873652763 0 93 45
-2.79999995 1.7999999500000001 -0.5281699892534533 0 91 45
-2.79999995 1.8999999800000005 -0.5345600255280645 0 90 44
-2.79999995 2.0 -0.5306299926613314 0 91 44
-2.79999995 2.0999999000000003 -0.5129799839573982 0 94 46
-2.79999995 2.20000005 -0.4796000119478471 1 99 48
-2.79999995 2.29999995 -0.4305599929113364 4 107 51
-2.79999995 2.4000000999999997 -0.36842000445425105 8 116 54
-2.79999995 2.5 -0.2982099947577419 13 126 57
-2.79999995 2.5999999000000003 -0.2269300068653996 19 135 59
-2.79999995 2.70000005 -0.16241000511596515 25 143 61
-2.79999995 2.79999995 -0.11191999830973454 30 149 61
-2.79999995 2.9000000999999997 -0.08057200204168014 34 152 62
-2.79999995 3.0 -0.06999500148384952 35 153 62
-2.79999995 3.0999999000000003 -0.07766100057031888 34 152 62
-2.79999995 3.20000005 -0.09708000011180729 32 150 62
-2.79999995 3.29999995 -0.11900000320629234 29 148 61
-2.79999995 3.4000000999999997 -0.13345000101473736 28 146 61
-2.79999995 3.5 -0.13212999629954714 28 146 61
-2.79999995 3.5999999000000003 -0.11077000173581053 30 149 61
-2.79999995 3.70000005 -0.07049299842119261 35 153 62
-2.79999995 3.79999995 -0.01810199871611884 41 159 62
-2.79999995 3.9000000999999997 0.035292000446147 48 164 62
-2.79999995 4.0 0.07682800373631382 54 168 62
-2.79999995 4.0999999 0.09518300084737918 56 169 62
-2.79999995 4.19999981 0.08369600055836346 55 168 62
-2.79999995 4.30000019 0.042447000050436 49 164 62
-2.79999995 4.4000001 -0.02139799986993407 41 158 62
-2.79999995 4.5 -0.09520000276355978 32 151 62
-2.79999995 4.5999999 -0.16411000527376107 25 143 61
-2.79999995 4.69999981 -0.21511000470840785 20 136 59
-2.79999995 4.80000019 -0.24076999790486525 17 133 59
-2.79999995 4.9000001 -0.2414799923182559 17 133 59
-2.79999995 5.0 -0.22547000708316278 19 135 59
-2.70000005 -5.0 -0.23565000343541548 18 134 59
-2.70000005 -4.9000001 -0.24382999606920575 17 133 59
-2.70000005 -4.80000019 -0.22923999966089392 18 135 59
-2.70000005 -4.69999981 -0.18783000146968365 22 140 60
-2.70000005 -4.5999999 -0.12404000049457264 29 147 61
-2.70000005 -4.5 -0.04941400084531333 37 155 62
-2.70000005 -4.4000001 0.020845000235662714 46 162 62
-2.70000005 -4.30000019 0.07220900026934762 53 167 62
-2.70000005 -4.19999981 0.09477400095072819 56 169 62
-2.70000005 -4.0999999 0.08574900011301756 55 168 62
-2.70000005 -4.0 0.049867998054318186 50 165 62
-2.70000005 -3.9000000999999997 -0.0022466008620106726 43 160 62
-2.70000005 -3.79999995 -0.057176000788570436 36 155 62
-2.70000005 -3.70000005 -0.1023299988327081 31 150 62
-2.70000005 -3.5999999000000003 -0.12907999778285284 28 147 61
-2.70000005 -3.5 -0.13468000360188148 28 146 61
-2.70000005 -3.4000000999999997 -0.12245999964135124 29 148 61
-2.70000005 -3.29999995 -0.10058999831791737 31 150 62
-2.70000005 -3.20000005 -0.07967700089875906 34 152 62
-2.70000005 -3.0999999000000003 -0.0700189999316363 35 153 62
-2.70000005 -3.0 -0.07918199979296658 34 152 62
-2.70000005 -2.9000000999999997 -0.11044999887985152 30 149 61
-2.70000005 -2.79999995 -0.16241000511596515 25 143 61
-2.70000005 -2.70000005 -0.22959999757461735 18 135 59
-2.70000005 -2.5999999 -0.30397999282034566 12 125 56
-2.70000005 -2.5 -0.3767699893316164 7 115 53
-2.70000005 -2.4000000999999997 -0.44016998991724515 3 105 50
-2.70000005 -2.29999995 -0.48864999335736703 1 97 47
-2.70000005 -2.20000005 -0.5196099870457764 0 92 45
-2.70000005 -2.0999999 -0.5334299805563598 0 90 44
-2.70000005 -2.0 -0.53288000876787 0 90 44
-2.70000005 -1.89999998 -0.5222499964761567 0 92 45
-2.70000005 -1.7999999500000001 -0.506439982997066 0 95 46
-2.70000005 -1.7000000499999999 -0.49002000690924885 1 97 47
-2.70000005 -1.60000002 -0.47666001308808115 1 99 48
-2.70000005 -1.5 -0.4687500003422773 2 101 48
-2.70000005 -1.39999998 -0.4673799867903955 2 101 48
-2.70000005 -1.2999999500000001 -0.4724900134075811 1 100 48
-2.70000005 -1.2000000499999999 -0.4831500052117217 1 98 47
-2.70000005 -1.10000002 -0.49792998962608076 0 96 47
-2.70000005 -1.0 -0.5152199862850096 0 93 45
-2.70000005 -0.8999999799999996 -0.533460021893141 0 90 44
-2.70000005 -0.8000000099999998 -0.5513399836319142 0 87 43
-2.70000005 -0.6999999900000002 -0.5678899887009239 0 84 42
-2.70000005 -0.6000000199999995 -0.5824599858139434 0 82 41
-2.70000005 -0.5 -0.5947099922502325 0 80 40
-2.70000005 -0.4000000100000003 -0.6045299765574808 0 78 39
-2.70000005 -0.30000000999999976 -0.6119599938513968 0 77 39
-2.70000005 -0.20000000000000018 -0.6171100137599368 0 76 38
-2.70000005 -0.09999999999999964 -0.620140016514159 0 75 38
-2.70000005 0.0 -0.6211400024756992 0 75 38
-2.70000005 0.10000000000000053 -0.620140016514159 0 75 38
-2.70000005 0.20000000000000018 -0.6171100137599368 0 76 38
-2.70000005 0.30000000999999976 -0.6119599938513968 0 77 39
-2.70000005 0.4000000100000003 -0.6045299765574808 0 78 39
-2.70000005 0.5 -0.5947099922502325 0 80 40
-2.70000005 0.6000000200000004 -0.5824599858139434 0 82 41
-2.70000005 0.6999999900000002 -0.5678899887009239 0 84 42
-2.70000005 0.8000000099999998 -0.5513399836319142 0 87 43
-2.70000005 0.8999999800000005 -0.533460021893141 0 90 44
-2.70000005 1.0 -0.5152199862850096 0 93 45
-2.70000005 1.1000000200000004 -0.49792998962608076 0 96 47
-2.70000005 1.2000000499999999 -0.4831500052117217 1 98 47
-2.70000005 1.2999999500000001 -0.4724900134075811 1 100 48
-2.70000005 1.3999999800000005 -0.4673799867903955 2 101 48
-2.70000005 1.5 -0.4687500003422773 2 101 48
-2.70000005 1.6000000200000004 -0.47666001308808115 1 99 48
-2.70000005 1.7000000499999999 -0.49002000690924885 1 97 47
-2.70000005 1.7999999500000001 -0.506439982997066 0 95 46
-2.70000005 1.8999999800000005 -0.5222499964761567 0 92 45
-2.70000005 2.0 -0.53288000876787 0 90 44
-2.70000005 2.0999999000000003 -0.5334299805563598 0 90 44
-2.70000005 2.20000005 -0.5196099870457764 0 92 45
-2.70000005 2.29999995 -0.48864999335736703 1 97 47
-2.70000005 2.4000000999999997 -0.44016998991724515 3 105 50
-2.70000005 2.5 -0.3767699893316164 7 115 53
-2.70000005 2.5999999000000003 -0.30397999282034566 12 125 56
-2.70000005 2.70000005 -0.22959999757461735 18 135 59
-2.70000005 2.79999995 -0.16241000511596515 25 143 61
-2.70000005 2.9000000999999997 -0.11044999887985152 30 149 61
-2.70000005 3.0 -0.07918199979296658 34 152 62
-2.70000005 3.0999999000000003 -0.0700189999316363 35 153 62
-2.70000005 3.20000005 -0.07967700089875906 34 152 62
-2.70000005 3.29999995 -0.10058999831791737 31 150 62
-2.70000005 3.4000000999999997 -0.12245999964135124 29 148 61
-2.70000005 3.5 -0.13468000360188148 28 146 61
-2.70000005 3.5999999000000003 -0.12907999778285284 28 147 61
-2.70000005 3.70000005 -0.1023299988327081 31 150 62
-2.70000005 3.79999995 -0.057176000788570436 36 155 62
-2.70000005 3.9000000999999997 -0.0022466008620106726 43 160 62
-2.70000005 4.0 0.049867998054318186 50 165 62
-2.70000005 4.0999999 0.08574900011301756 55 168 62
-2.70000005 4.19999981 0.09477400095072819 56 169 62
-2.70000005 4.30000019 0.07220900026934762 53 167 62
-2.70000005 4.4000001 0.020845000235662714 46 162 62
-2.70000005 4.5 -0.04941400084531333 37 155 62
-2.70000005 4.5999999 -0.12404000049457264 29 147 61
-2.70000005 4.69999981 -0.18783000146968365 22 140 60
-2.70000005 4.80000019 -0.22923999966089392 18 135 59
-2.70000005 4.9000001 -0.24382999606920575 17 133 59
-2.70000005 5.0 -0.23565000343541548 18 134 59
-2.5999999 -5.0 -0.24228000652379367 17 133 59
-2.5999999 -4.9000001 -0.23917999917040778 18 133 59
-2.5999999 -4.80000019 -0.20947000383161474 20 137 59
-2.5999999 -4.69999981 -0.15377999830912448 26 144 61
-2.5999999 -4.5999999 -0.08115500216645122 33 152 62
-2.5999999 -4.5 -0.0062405989717333465 42 160 62
-2.5999999 -4.4000001 0.05502299923937515 51 166 62
-2.5999999 -4.30000019 0.08995400297630451 55 169 62
-2.5999999 -4.19999981 0.09254600137983038 56 169 62
-2.5999999 -4.0999999 0.06485000326041013 52 167 62
-2.5999999 -4.0 0.016040998871216794 45 162 62
-2.5999999 -3.9000000999999997 -0.040414001776333364 38 156 62
-2.5999999 -3.79999995 -0.09058900113440271 32 151 62
-2.5999999 -3.70000005 -0.1237900040041876 29 147 61
-2.5999999 -3.5999999000000003 -0.13516999693500542 28 146 61
-2.5999999 -3.5 -0.1265500039070918 28 147 61
-2.5999999 -3.4000000999999997 -0.10549999842038704 31 149 62
-2.5999999 -3.29999995 -0.08301600000752996 33 152 62
-2.5999999 -3.20000005 -0.07045400138514157 35 153 62
-2.5999999 -3.0999999000000003 -0.07671199673744222 34 153 62
-2.5999999 -3.0 -0.10620000201818203 31 149 62
-2.5999999 -2.9000000999999997 -0.15810999235196355 25 143 61
-2.5999999 -2.79999995 -0.2269300068653996 19 135 59
-2.5999999 -2.70000005 -0.30397999282034566 12 125 56
-2.5999999 -2.5999999 -0.3795399959478073 7 114 53
-2.5999999 -2.5 -0.4448400143738973 3 104 50
-2.5999999 -2.4000000999999997 -0.493710011137861 0 97 47
-2.5999999 -2.29999995 -0.5233600138900072 0 92 45
-2.5999999 -2.20000005 -0.5344700216336083 0 90 44
-2.5999999 -2.0999999 -0.5305100074880378 0 91 44
-2.5999999 -2.0 -0.516719997022702 0 93 45
-2.5999999 -1.89999998 -0.4988799985463114 0 96 46
-2.5999999 -1.7999999500000001 -0.4822700026570649 1 98 48
-2.5999999 -1.7000000499999999 -0.4708899849965055 2 100 48
-2.5999999 -1.60000002 -0.46709999488989207 2 101 48
-2.5999999 -1.5 -0.4715999953075871 2 100 48
-2.5999999 -1.39999998 -0.48370000702918337 1 98 47
-2.5999999 -1.2999999500000001 -0.5017399790279865 0 95 46
-2.5999999 -1.2000000499999999 -0.523590028749201 0 92 45
-2.5999999 -1.10000002 -0.5470299712202663 0 88 43
-2.5999999 -1.0 -0.5701299910285353 0 84 42
-2.5999999 -0.8999999799999996 -0.5913900138455517 0 80 40
-2.5999999 -0.8000000099999998 -0.609860002488523 0 77 39
-2.5999999 -0.6999999900000002 -0.6250600215635052 0 74 37
-2.5999999 -0.6000000199999995 -0.636960029733717 0 72 37
-2.5999999 -0.5 -0.6458299750917628 0 71 36
-2.5999999 -0.4000000100000003 -0.6521099799140637 0 70 35
-2.5999999 -0.30000000999999976 -0.656300008918828 0 69 35
-2.5999999 -0.20000000000000018 -0.6588900095125167 0 68 35
-2.5999999 -0.09999999999999964 -0.6602699750189717 0 68 35
-2.5999999 0.0 -0.6607099771795051 0 68 35
-2.5999999 0.10000000000000053 -0.6602699750189717 0 68 35
-2.5999999 0.20000000000000018 -0.6588900095125167 0 68 35
-2.5999999 0.30000000999999976 -0.656300008918828 0 69 35
-2.5999999 0.4000000100000003 -0.6521099799140637 0 70 35
-2.5999999 0.5 -0.6458299750917628 0 71 36
-2.5999999 0.6000000200000004 -0.636960029733717 0 72 37
-2.5999999 0.6999999900000002 -0.6250600215635052 0 74 37
-2.5999999 0.8000000099999998 -0.609860002488523 0 77 39
-2.5999999 0.8999999800000005 -0.5913900138455517 0 80 40
-2.5999999 1.0 -0.5701299910285353 0 84 42
-2.5999999 1.1000000200000004 -0.5470299712202663 0 88 43
-2.5999999 1.2000000499999999 -0.523590028749201 0 92 45
-2.5999999 1.2999999500000001 -0.5017399790279865 0 95 46
-2.5999999 1.3999999800000005 -0.48370000702918337 1 98 47
-2.5999999 1.5 -0.4715999953075871 2 100 48
-2.5999999 1.6000000200000004 -0.46709999488989207 2 101 48
-2.5999999 1.7000000499999999 -0.4708899849965055 2 100 48
-2.5999999 1.7999999500000001 -0.4822700026570649 1 98 48
-2.5999999 1.8999999800000005 -0.4988799985463114 0 96 46
-2.5999999 2.0 -0.516719997022702 0 93 45
-2.5999999 2.0999999000000003 -0.5305100074880378 0 91 44
-2.5999999 2.20000005 -0.5344700216336083 0 90 44
-2.5999999 2.29999995 -0.5233600138900072 0 92 45
-2.5999999 2.4000000999999997 -0.493710011137861 0 97 47
-2.5999999 2.5 -0.4448400143738973 3 104 50
-2.5999999 2.5999999000000003 -0.3795399959478073 7 114 53
-2.5999999 2.70000005 -0.30397999282034566 12 125 56
-2.5999999 2.79999995 -0.2269300068653996 19 135 59
-2.5999999 2.9000000999999997 -0.15810999235196355 25 143 61
-2.5999999 3.0 -0.10620000201818203 31 149 62
-2.5999999 3.0999999000000003 -0.07671199673744222 34 153 62
-2.5999999 3.20000005 -0.07045400138514157 35 153 62
-2.5999999 3.29999995 -0.08301600000752996 33 152 62
-2.5999999 3.4000000999999997 -0.10549999842038704 31 149 62
-2.5999999 3.5 -0.1265500039070918 28 147 61
-2.5999999 3.5999999000000003 -0.13516999693500542 28 146 61
-2.5999999 3.70000005 -0.1237900040041876 29 147 61
-2.5999999 3.79999995 -0.09058900113440271 32 151 62
-2.5999999 3.9000000999999997 -0.040414001776333364 38 156 62
-2.5999999 4.0 0.016040998871216794 45 162 62
-2.5999999 4.0999999 0.06485000326041013 52 167 62
-2.5999999 4.19999981 0.09254600137983038 56 169 62
-2.5999999 4.30000019 0.08995400297630451 55 169 62
-2.5999999 4.4000001 0.05502299923937515 51 166 62
-2.5999999 4.5 -0.0062405989717333465 42 160 62
-2.5999999 4.5999999 -0.08115500216645122 33 152 62
-2.5999999 4.69999981 -0.15377999830912448 26 144 61
-2.5999999 4.80000019 -0.20947000383161474 20 137 59
-2.5999999 4.9000001 -0.23917999917040778 18 133 59
-2.5999999 5.0 -0.24228000652379367 17 133 59
-2.5 -5.0 -0.2436999971169851 17 133 59
-2.5 -4.9000001 -0.22711999663785698 19 135 59
-2.5 -4.80000019 -0.18254999850661396 23 140 60
-2.5 -4.69999981 -0.11540000110572624 30 148 61
-2.5 -4.5999999 -0.038607999347693434 38 157 62
-2.5 -4.5 0.03130599887500307 47 163 62
-2.5 -4.4000001 0.07916600296414 54 168 62
-2.5 -4.30000019 0.09544099917557336 56 169 62
-2.5 -4.19999981 0.07875200412687089 54 168 62
-2.5 -4.0999999 0.03592700191821652 48 164 62
-2.5 -4.0 -0.020272999765510336 41 158 62
-2.5 -3.9000000999999997 -0.0749720032882919 34 153 62
-2.5 -3.79999995 -0.1153599989823213 30 148 61
-2.5 -3.70000005 -0.13403999788996357 28 146 61
-2.5 -3.5999999000000003 -0.13068999404619264 28 147 61
-2.5 -3.5 -0.1116700018193495 30 149 61
-2.5 -3.4000000999999997 -0.08794800251435941 33 151 62
-2.5 -3.29999995 -0.07183699981775948 35 153 62
-2.5 -3.20000005 -0.07375899709924916 34 153 62
-2.5 -3.0999999000000003 -0.0996629968894005 31 150 62
-2.5 -3.0 -0.1498000025323627 26 144 61
-2.5 -2.9000000999999997 -0.2189999965907135 19 136 59
-2.5 -2.79999995 -0.2982099947577419 13 126 57
-2.5 -2.70000005 -0.3767699893316164 7 115 53
-2.5 -2.5999999 -0.4448400143738973 3 104 50
-2.5 -2.5 -0.495339989032392 0 96 47
-2.5 -2.4000000999999997 -0.5250300168712747 0 92 45
-2.5 -2.29999995 -0.5347099902137854 0 90 44
-2.5 -2.20000005 -0.5284500129493387 0 91 45
-2.5 -2.0999999 -0.5123900171111438 0 94 46
-2.5 -2.0 -0.49322998565700127 0 97 47
-2.5 -1.89999998 -0.4769999975752313 1 99 48
-2.5 -1.7999999500000001 -0.46805000381012274 2 101 48
-2.5 -1.7000000499999999 -0.4686799939767034 2 101 48
-2.5 -1.60000002 -0.4791100027170322 1 99 48
-2.5 -1.5 -0.49792998962608076 0 96 47
-2.5 -1.39999998 -0.5226299760210714 0 92 45
-2.5 -1.2999999500000001 -0.5502600075548448 0 87 43
-2.5 -1.2000000499999999 -0.5779799811587205 0 83 41
-2.5 -1.10000002 -0.6034500004804115 0 78 39
-2.5 -1.0 -0.6250600215635052 0 74 37
-2.5 -0.8999999799999996 -0.6419500111196651 0 71 36
-2.5 -0.8000000099999998 -0.6539800164756875 0 69 35
-2.5 -0.6999999900000002 -0.661530017176487 0 68 35
-2.5 -0.6000000199999995 -0.665359974078303 0 67 34
-2.5 -0.5 -0.6664100289344788 0 67 34
-2.5 -0.4000000100000003 -0.6656699772866158 0 67 34
-2.5 -0.30000000999999976 -0.66404998314204 0 67 34
-2.5 -0.20000000000000018 -0.6623200176030977 0 68 34
-2.5 -0.09999999999999964 -0.6610500217245991 0 68 35
-2.5 0.0 -0.6605899937726216 0 68 35
-2.5 0.10000000000000053 -0.6610500217245991 0 68 35
-2.5 0.20000000000000018 -0.6623200176030977 0 68 34
-2.5 0.30000000999999976 -0.66404998314204 0 67 34
-2.5 0.4000000100000003 -0.6656699772866158 0 67 34
-2.5 0.5 -0.6664100289344788 0 67 34
-2.5 0.6000000200000004 -0.665359974078303 0 67 34
-2.5 0.6999999900000002 -0.661530017176487 0 68 35
-2.5 0.8000000099999998 -0.6539800164756875 0 69 35
-2.5 0.8999999800000005 -0.6419500111196651 0 71 36
-2.5 1.0 -0.6250600215635052 0 74 37
-2.5 1.1000000200000004 -0.6034500004804115 0 78 39
-2.5 1.2000000499999999 -0.5779799811587205 0 83 41
-2.5 1.2999999500000001 -0.5502600075548448 0 87 43
-2.5 1.3999999800000005 -0.5226299760210714 0 92 45
-2.5 1.5 -0.49792998962608076 0 96 47
-2.5 1.6000000200000004 -0.4791100027170322 1 99 48
-2.5 1.7000000499999999 -0.4686799939767034 2 101 48
-2.5 1.7999999500000001 -0.46805000381012274 2 101 48
-2.5 1.8999999800000005 -0.4769999975752313 1 99 48
-2.5 2.0 -0.49322998565700127 0 97 47
-2.5 2.0999999000000003 -0.5123900171111438 0 94 46
-2.5 2.20000005 -0.5284500129493387 0 91 45
-2.5 2.29999995 -0.5347099902137854 0 90 44
-2.5 2.4000000999999997 -0.5250300168712747 0 92 45
-2.5 2.5 -0.495339989032392 0 96 47
-2.5 2.5999999000000003 -0.4448400143738973 3 104 50
-2.5 2.70000005 -0.3767699893316164 7 115 53
-2.5 2.79999995 -0.2982099947577419 13 126 57
-2.5 2.9000000999999997 -0.2189999965907135 19 136 59
-2.5 3.0 -0.1498000025323627 26 144 61
-2.5 3.0999999000000003 -0.0996629968894005 31 150 62
-2.5 3.20000005 -0.07375899709924916 34 153 62
-2.5 3.29999995 -0.07183699981775948 35 153 62
-2.5 3.4000000999999997 -0.08794800251435941 33 151 62
-2.5 3.5 -0.1116700018193495 30 149 61
-2.5 3.5999999000000003 -0.13068999404619264 28 147 61
-2.5 3.70000005 -0.13403999788996357 28 146 61
-2.5 3.79999995 -0.1153599989823213 30 148 61
-2.5 3.9000000999999997 -0.0749720032882919 34 153 62
-2.5 4.0 -0.020272999765510336 41 158 62
-2.5 4.0999999 0.03592700191821652 48 164 62
-2.5 4.19999981 0.07875200412687089 54 168 62
-2.5 4.30000019 0.09544099917557336 56 169 62
-2.5 4.4000001 0.07916600296414 54 168 62
-2.5 4.5 0.03130599887500307 47 163 62
-2.5 4.5999999 -0.038607999347693434 38 157 62
-2.5 4.69999981 -0.11540000110572624 30 148 61
-2.5 4.80000019 -0.18254999850661396 23 140 60
-2.5 4.9000001 -0.22711999663785698 19 135 59
-2.5 5.0 -0.2436999971169851 17 133 59
-2.4000000999999997 -5.0 -0.23901000692683266 18 133 59
-2.4000000999999997 -4.9000001 -0.20809000652977777 20 137 60
-2.4000000999999997 -4.80000019 -0.15023000504524997 26 144 61
-2.4000000999999997 -4.69999981 -0.0753249973859198 34 153 62
-2.4000000999999997 -4.5999999 0.0007563899487729175 43 161 62
-2.4000000999999997 -4.5 0.06103499902019527 51 166 62
-2.4000000999999997 -4.4000001 0.0924659971330204 56 169 62
-2.4000000999999997 -4.30000019 0.08963199701127811 55 169 62
-2.4000000999999997 -4.19999981 0.05603799968687062 51 166 62
-2.4000000999999997 -4.0999999 0.002743399954448722 44 161 62
-2.4000000999999997 -4.0 -0.05511999833672521 36 155 62
-2.4000000999999997 -3.9000000999999997 -0.10283000064552883 31 150 62
-2.4000000999999997 -3.79999995 -0.13015000600765803 28 147 61
-2.4000000999999997 -3.70000005 -0.13397000742208076 28 146 61
-2.4000000999999997 -3.5999999000000003 -0.1186999978792157 29 148 61
-2.4000000999999997 -3.5 -0.09464900115797448 32 151 62
-2.4000000999999997 -3.4000000999999997 -0.07480199691343592 34 153 62
-2.4000000999999997 -3.29999995 -0.07117699834336944 35 153 62
-2.4000000999999997 -3.20000005 -0.09163899769904471 32 151 62
-2.4000000999999997 -3.0999999000000003 -0.1380500049745348 27 146 61
-2.4000000999999997 -3.0 -0.20611000034019755 21 138 60
-2.4000000999999997 -2.9000000999999997 -0.2867200074692261 14 127 57
-2.4000000999999997 -2.79999995 -0.36842000445425105 8 116 54
-2.4000000999999997 -2.70000005 -0.44016998991724515 3 105 50
-2.4000000999999997 -2.5999999 -0.493710011137861 0 97 47
-2.4000000999999997 -2.5 -0.5250300168712747 0 92 45
-2.4000000999999997 -2.4000000999999997 -0.5347300177716396 0 90 44
-2.4000000999999997 -2.29999995 -0.5272899866987966 0 91 45
-2.4000000999999997 -2.20000005 -0.5096799730526278 0 94 46
-2.4000000999999997 -2.0999999 -0.4895699909697883 1 97 47
-2.4000000999999997 -2.0 -0.4737899905649171 1 100 48
-2.4000000999999997 -1.89999998 -0.4671399899476566 2 101 48
-2.4000000999999997 -1.7999999500000001 -0.47189000275342774 2 100 48
-2.4000000999999997 -1.7000000499999999 -0.48776999080271033 1 98 47
-2.4000000999999997 -1.60000002 -0.5125499955757918 0 94 46
-2.4000000999999997 -1.5 -0.5427799814242372 0 89 44
-2.4000000999999997 -1.39999998 -0.5746099956837583 0 83 41
-2.4000000999999997 -1.2999999500000001 -0.6045299765574808 0 78 39
-2.4000000999999997 -1.2000000499999999 -0.6298000223567594 0 74 37
-2.4000000999999997 -1.10000002 -0.6487399944391015 0 70 36
-2.4000000999999997 -1.0 -0.6607099771795051 0 68 35
-2.4000000999999997 -0.8999999799999996 -0.6659799822613387 0 67 34
-2.4000000999999997 -0.8000000099999998 -0.6654999850430408 0 67 34
-2.4000000999999997 -0.6999999900000002 -0.6605899937726216 0 68 35
-2.4000000999999997 -0.6000000199999995 -0.6527500156549535 0 70 35
-2.4000000999999997 -0.5 -0.6434699893572678 0 71 36
-2.4000000999999997 -0.4000000100000003 -0.6340600259317155 0 73 37
-2.4000000999999997 -0.30000000999999976 -0.6256300209098492 0 74 37
-2.4000000999999997 -0.20000000000000018 -0.6190199853213814 0 76 38
-2.4000000999999997 -0.09999999999999964 -0.6148200043620439 0 76 38
-2.4000000999999997 0.0 -0.61338001447356 0 77 38
-2.4000000999999997 0.10000000000000053 -0.6148200043620439 0 76 38
-2.4000000999999997 0.20000000000000018 -0.6190199853213814 0 76 38
-2.4000000999999997 0.30000000999999976 -0.6256300209098492 0 74 37
-2.4000000999999997 0.4000000100000003 -0.6340600259317155 0 73 37
-2.4000000999999997 0.5 -0.6434699893572678 0 71 36
-2.4000000999999997 0.6000000200000004 -0.6527500156549535 0 70 35
-2.4000000999999997 0.6999999900000002 -0.6605899937726216 0 68 35
-2.4000000999999997 0.8000000099999998 -0.6654999850430408 0 67 34
-2.4000000999999997 0.8999999800000005 -0.6659799822613387 0 67 34
-2.4000000999999997 1.0 -0.6607099771795051 0 68 35
-2.4000000999999997 1.1000000200000004 -0.6487399944391015 0 70 36
-2.4000000999999997 1.2000000499999999 -0.6298000223567594 0 74 37
-2.4000000999999997 1.2999999500000001 -0.6045299765574808 0 78 39
-2.4000000999999997 1.3999999800000005 -0.5746099956837583 0 83 41
-2.4000000999999997 1.5 -0.5427799814242372 0 89 44
-2.4000000999999997 1.6000000200000004 -0.5125499955757918 0 94 46
-2.4000000999999997 1.7000000499999999 -0.48776999080271033 1 98 47
-2.4000000999999997 1.7999999500000001 -0.47189000275342774 2 100 48
-2.4000000999999997 1.8999999800000005 -0.4671399899476566 2 101 48
-2.4000000999999997 2.0 -0.4737899905649171 1 100 48
-2.4000000999999997 2.0999999000000003 -0.4895699909697883 1 97 47
-2.4000000999999997 2.20000005 -0.5096799730526278 0 94 46
-2.4000000999999997 2.29999995 -0.5272899866987966 0 91 45
-2.4000000999999997 2.4000000999999997 -0.5347300177716396 0 90 44
-2.4000000999999997 2.5 -0.5250300168712747 0 92 45
-2.4000000999999997 2.5999999000000003 -0.493710011137861 0 97 47
-2.4000000999999997 2.70000005 -0.44016998991724515 3 105 50
-2.4000000999999997 2.79999995 -0.36842000445425105 8 116 54
-2.4000000999999997 2.9000000999999997 -0.2867200074692261 14 127 57
-2.4000000999999997 3.0 -0.20611000034019755 21 138 60
-2.4000000999999997 3.0999999000000003 -0.1380500049745348 27 146 61
-2.4000000999999997 3.20000005 -0.09163899769904471 32 151 62
-2.4000000999999997 3.29999995 -0.07117699834336944 35 153 62
-2.4000000999999997 3.4000000999999997 -0.07480199691343592 34 153 62
-2.4000000999999997 3.5 -0.09464900115797448 32 151 62
-2.4000000999999997 3.5999999000000003 -0.1186999978792157 29 148 61
-2.4000000999999997 3.70000005 -0.13397000742208076 28 146 61
-2.4000000999999997 3.79999995 -0.13015000600765803 28 147 61
-2.4000000999999997 3.9000000999999997 -0.10283000064552883 31 150 62
-2.4000000999999997 4.0 -0.05511999833672521 36 155 62
-2.4000000999999997 4.0999999 0.002743399954448722 44 161 62
-2.4000000999999997 4.19999981 0.05603799968687062 51 166 62
-2.4000000999999997 4.30000019 0.08963199701127811 55 169 62
-2.4000000999999997 4.4000001 0.0924659971330204 56 169 62
-2.4000000999999997 4.5 0.06103499902019527 51 166 62
-2.4000000999999997 4.5999999 0.0007563899487729175 43 161 62
-2.4000000999999997 4.69999981 -0.0753249973859198 34 153 62
-2.4000000999999997 4.80000019 -0.15023000504524997 26 144 61
-2.4000000999999997 4.9000001 -0.20809000652977777 20 137 60
-2.4000000999999997 5.0 -0.23901000692683266 18 133 59
-2.29999995 -5.0 -0.2280499938979244 18 135 59
-2.29999995 -4.9000001 -0.1831499932630763 23 140 60
-2.29999995 -4.80000019 -0.11460000279787941 30 148 61
-2.29999995 -4.69999981 -0.03612800017734308 39 157 62
-2.29999995 -4.5999999 0.034664999045476486 48 164 62
-2.29999995 -4.5 0.08169300100835042 54 168 62
-2.29999995 -4.4000001 0.09518300084737918 56 169 62
-2.29999995 -4.30000019 0.07439500167341351 53 167 62
-2.29999995 -4.19999981 0.027512000783844748 47 163 62
-2.29999995 -4.0999999 -0.031106998863411395 39 157 62
-2.29999995 -4.0 -0.08537899747126654 33 152 62
-2.29999995 -3.9000000999999997 -0.12222000279861234 29 148 61
-2.29999995 -3.79999995 -0.1351599990537693 28 146 61
-2.29999995 -3.70000005 -0.12582999394836403 29 147 61
-2.29999995 -3.5999999000000003 -0.10305000172579548 31 150 62
-2.29999995 -3.5 -0.07994200304304888 34 152 62
-2.29999995 -3.4000000999999997 -0.06998599985791687 35 153 62
-2.29999995 -3.29999995 -0.083254002573252 33 152 62
-2.29999995 -3.20000005 -0.1237900040041876 29 147 61
-2.29999995 -3.0999999000000003 -0.18877999449222327 22 140 60
-2.29999995 -3.0 -0.2696200005827546 15 129 58
-2.29999995 -2.9000000999999997 -0.35431000526423717 8 118 54
-2.29999995 -2.79999995 -0.4305599929113364 4 107 51
-2.29999995 -2.70000005 -0.48864999335736703 1 97 47
-2.29999995 -2.5999999 -0.5233600138900072 0 92 45
-2.29999995 -2.5 -0.5347099902137854 0 90 44
-2.29999995 -2.4000000999999997 -0.5272899866987966 0 91 45
-2.29999995 -2.29999995 -0.5087599754402066 0 94 46
-2.29999995 -2.20000005 -0.4877800045816374 1 98 47
-2.29999995 -2.0999999 -0.4721199875836496 1 100 48
-2.29999995 -2.0 -0.4671699994890559 2 101 48
-2.29999995 -1.89999998 -0.4752700037737272 1 100 48
-2.29999995 -1.7999999500000001 -0.495750009914088 0 96 47
-2.29999995 -1.7000000499999999 -0.5255100123231625 0 91 45
-2.29999995 -1.60000002 -0.5601099731409307 0 86 42
-2.29999995 -1.5 -0.5947099922502325 0 80 40
-2.29999995 -1.39999998 -0.6250600215635052 0 74 37
-2.29999995 -1.2999999500000001 -0.6480299823616097 0 70 36
-2.29999995 -1.2000000499999999 -0.6619200105003288 0 68 34
-2.29999995 -1.10000002 -0.6664100289344788 0 67 34
-2.29999995 -1.0 -0.6623200176030977 0 68 34
-2.29999995 -0.8999999799999996 -0.6512500049172611 0 70 35
-2.29999995 -0.8000000099999998 -0.6351900108454764 0 73 37
-2.29999995 -0.6999999900000002 -0.6162400249842072 0 76 38
-2.29999995 -0.6000000199999995 -0.5963400001737353 0 80 40
-2.29999995 -0.5 -0.577130019940845 0 83 41
-2.29999995 -0.4000000100000003 -0.5599399808973555 0 86 42
-2.29999995 -0.30000000999999976 -0.5457199820504134 0 88 43
-2.29999995 -0.20000000000000018 -0.5351399785953918 0 90 44
-2.29999995 -0.09999999999999964 -0.5286399726928241 0 91 45
-2.29999995 0.0 -0.5264499792019043 0 91 45
-2.29999995 0.10000000000000053 -0.5286399726928241 0 91 45
-2.29999995 0.20000000000000018 -0.5351399785953918 0 90 44
-2.29999995 0.30000000999999976 -0.5457199820504134 0 88 43
-2.29999995 0.4000000100000003 -0.5599399808973555 0 86 42
-2.29999995 0.5 -0.577130019940845 0 83 41
-2.29999995 0.6000000200000004 -0.5963400001737353 0 80 40
-2.29999995 0.6999999900000002 -0.6162400249842072 0 76 38
-2.29999995 0.8000000099999998 -0.6351900108454764 0 73 37
-2.29999995 0.8999999800000005 -0.6512500049172611 0 70 35
-2.29999995 1.0 -0.6623200176030977 0 68 34
-2.29999995 1.1000000200000004 -0.6664100289344788 0 67 34
-2.29999995 1.2000000499999999 -0.6619200105003288 0 68 34
-2.29999995 1.2999999500000001 -0.6480299823616097 0 70 36
-2.29999995 1.3999999800000005 -0.6250600215635052 0 74 37
-2.29999995 1.5 -0.5947099922502325 0 80 40
-2.29999995 1.6000000200000004 -0.5601099731409307 0 86 42
-2.29999995 1.7000000499999999 -0.5255100123231625 0 91 45
-2.29999995 1.7999999500000001 -0.495750009914088 0 96 47
-2.29999995 1.8999999800000005 -0.4752700037737272 1 100 48
-2.29999995 2.0 -0.4671699994890559 2 101 48
-2.29999995 2.0999999000000003 -0.4721199875836496 1 100 48
-2.29999995 2.20000005 -0.4877800045816374 1 98 47
-2.29999995 2.29999995 -0.5087599754402066 0 94 46
-2.29999995 2.4000000999999997 -0.5272899866987966 0 91 45
-2.29999995 2.5 -0.5347099902137854 0 90 44
-2.29999995 2.5999999000000003 -0.5233600138900072 0 92 45
-2.29999995 2.70000005 -0.48864999335736703 1 97 47
-2.29999995 2.79999995 -0.4305599929113364 4 107 51
-2.29999995 2.9000000999999997 -0.35431000526423717 8 118 54
-2.29999995 3.0 -0.2696200005827546 15 129 58
-2.29999995 3.0999999000000003 -0.18877999449222327 22 140 60
-2.29999995 3.20000005 -0.1237900040041876 29 147 61
-2.29999995 3.29999995 -0.083254002573252 33 152 62
-2.29999995 3.4000000999999997 -0.06998599985791687 35 153 62
-2.29999995 3.5 -0.07994200304304888 34 152 62
-2.29999995 3.5999999000000003 -0.10305000172579548 31 150 62
-2.29999995 3.70000005 -0.12582999394836403 29 147 61
-2.29999995 3.79999995 -0.1351599990537693 28 146 61
-2.29999995 3.9000000999999997 -0.12222000279861234 29 148 61
-2.29999995 4.0 -0.08537899747126654 33 152 62
-2.29999995 4.0999999 -0.031106998863411395 39 157 62
-2.29999995 4.19999981 0.027512000783844748 47 163 62
-2.29999995 4.30000019 0.07439500167341351 53 167 62
-2.29999995 4.4000001 0.09518300084737918 56 169 62
-2.29999995 4.5 0.08169300100835042 54 168 62
-2.29999995 4.5999999 0.034664999045476486 48 164 62
-2.29999995 4.69999981 -0.03612800017734308 39 157 62
-2.29999995 4.80000019 -0.11460000279787941 30 148 61
-2.29999995 4.9000001 -0.1831499932630763 23 140 60
-2.29999995 5.0 -0.2280499938979244 18 135 59
-2.20000005 -5.0 -0.21126000611745666 20 137 59
-2.20000005 -4.9000001 -0.15377999830912448 26 144 61
-2.20000005 -4.80000019 -0.07782600093891645 34 152 62
-2.20000005 -4.69999981 -1.4446694528547077e-05 43 160 62
-2.20000005 -4.5999999 0.06156099885704991 51 166 62
-2.20000005 -4.5 0.09293899760086322 56 169 62
-2.20000005 -4.4000001 0.08844400142301656 55 169 62
-2.20000005 -4.30000019 0.05215099833688519 50 165 62
-2.20000005 -4.19999981 -0.0036790004862415904 43 160 62
-2.20000005 -4.0999999 -0.06258799874728771 36 154 62
-2.20000005 -4.0 -0.10898999909761475 30 149 62
-2.20000005 -3.9000000999999997 -0.13273000695370052 28 146 61
-2.20000005 -3.79999995 -0.13184000475139757 28 146 61
-2.20000005 -3.70000005 -0.1126699966129403 30 149 61
-2.20000005 -3.5999999000000003 -0.0876260018485634 33 151 62
-2.20000005 -3.5 -0.07124499983346577 35 153 62
-2.20000005 -3.4000000999999997 -0.07588999779164574 34 153 62
-2.20000005 -3.29999995 -0.1083000004466963 30 149 62
-2.20000005 -3.20000005 -0.16789999538037442 24 142 60
-2.20000005 -3.0999999000000003 -0.24726000415978672 17 132 58
-2.20000005 -3.0 -0.33428001329692675 10 121 55
-2.20000005 -2.9000000999999997 -0.41554000988782835 5 109 51
-2.20000005 -2.79999995 -0.4796000119478471 1 99 48
-2.20000005 -2.70000005 -0.5196099870457764 0 92 45
-2.20000005 -2.5999999 -0.5344700216336083 0 90 44
-2.20000005 -2.5 -0.5284500129493387 0 91 45
-2.20000005 -2.4000000999999997 -0.5096799730526278 0 94 46
-2.20000005 -2.29999995 -0.4877800045816374 1 98 47
-2.20000005 -2.20000005 -0.47161000908651424 2 100 48
-2.20000005 -2.0999999 -0.4673799867903955 2 101 48
-2.20000005 -2.0 -0.4777500029440775 1 99 48
-2.20000005 -1.89999998 -0.5017399790279865 0 95 46
-2.20000005 -1.7999999500000001 -0.535489976861469 0 90 44
-2.20000005 -1.7000000499999999 -0.5734900227825144 0 83 41
-2.20000005 -1.60000002 -0.609860002488523 0 77 39
-2.20000005 -1.5 -0.639500021490714 0 72 36
-2.20000005 -1.39999998 -0.6588900095125167 0 68 35
-2.20000005 -1.2999999500000001 -0.666329980527416 0 67 34
-2.20000005 -1.2000000499999999 -0.6619200105003288 0 68 34
-2.20000005 -1.10000002 -0.6471300123070426 0 71 36
-2.20000005 -1.0 -0.6243500112524235 0 75 38
-2.20000005 -0.8999999799999996 -0.5963400001737353 0 80 40
-2.20000005 -0.8000000099999998 -0.5658100248959043 0 85 42
-2.20000005 -0.6999999900000002 -0.5351399785953918 0 90 44
-2.20000005 -0.6000000199999995 -0.5062299974621365 0 95 46
-2.20000005 -0.5 -0.48043000743222236 1 99 48
-2.20000005 -0.4000000100000003 -0.45866000611807056 2 102 49
-2.20000005 -0.30000000999999976 -0.4414499995746708 3 105 50
-2.20000005 -0.20000000000000018 -0.42904999842368885 4 107 51
-2.20000005 -0.09999999999999964 -0.4215899998509355 4 108 51
-2.20000005 0.0 -0.41909998690165806 4 108 51
